# .PCD v0.7 - Point Cloud Data file format
VERSION 0.7
FIELDS x y z
SIZE 4 4 4
TYPE F F F
COUNT 1 1 1
WIDTH 1365
HEIGHT 1
VIEWPOINT 0 0 0 1 0 0 0
POINTS 1365
DATA ascii
-0.2909776 0.17969608 0.72836232
-0.28444034 0.15971923 0.72949457
-0.27477688 0.15942776 0.72537863
-0.26791513 0.15482223 0.72332644
-0.26322812 0.14689016 0.72287297
-0.25854695 0.13896608 0.72242022
-0.25153738 0.13431317 0.72031522
-0.24683851 0.12636507 0.7198599
-0.23929256 0.12235987 0.71739155
-0.23226011 0.11752141 0.71531183
-0.22751993 0.1095171 0.71485031
-0.21745098 0.10851818 0.71069843
-0.21030676 0.10352719 0.70860112
-0.18874878 0.074104905 0.70511609
-0.1983974 0.076219082 0.7088654
-0.18638355 0.063047111 0.70628518
-0.18165594 0.054905415 0.70585436
-0.17437017 0.049721897 0.7037347
-0.16644108 0.045194983 0.70120603
-0.16160119 0.037054002 0.7007277
-0.15683228 0.028856218 0.70029062
-0.14943457 0.023520112 0.69815332
-0.13824654 0.02222091 0.69357562
-0.13075501 0.016756177 0.69142228
-0.12590373 0.0084459186 0.69097197
-0.11771536 0.0035659075 0.68840247
-0.11284637 -0.0047683716 0.68794948
-0.107903 -0.013049603 0.68745565
-0.10303259 -0.021386504 0.68700135
-0.09546113 -0.027113497 0.68486577
-0.087193012 -0.03225708 0.68231213
-0.082211077 -0.040591419 0.68181151
-0.073876083 -0.045825541 0.67924792
-0.065496266 -0.051120639 0.67667747
-0.060541093 -0.059573174 0.67620963
-0.052777708 -0.06556195 0.6740433
-0.044362485 -0.071060479 0.67149544
-0.0428316 -0.082514882 0.67310321
-0.034300089 -0.088017225 0.67050821
-0.029304385 -0.09652406 0.67003512
-0.34791708 -0.18853474 0.59868026
-0.34215915 -0.19342178 0.59650624
-0.32878137 -0.19021583 0.58658004
-0.32883382 -0.20147437 0.59036708
-0.32239896 -0.20588309 0.58759141
-0.31299889 -0.20735204 0.58184147
-0.30883604 -0.21425802 0.58141673
-0.30839008 -0.22479624 0.58462888
-0.30245745 -0.22992706 0.58241898
-0.29475081 -0.23342866 0.57847244
-0.29057831 -0.24035496 0.57803655
-0.3996129 -0.11871505 0.5904153
-0.4009276 -0.13249564 0.59607649
-0.39701068 -0.13922226 0.59571832
-0.39301628 -0.14589983 0.59531879
-0.3836109 -0.14577401 0.58886337
-0.38131064 -0.15461707 0.59032613
-0.37560505 -0.15930647 0.58809155
-0.36832672 -0.1621415 0.58408278
-0.36426157 -0.16891533 0.58367264
-0.36026776 -0.1757462 0.58330297
-0.3562752 -0.18257558 0.58293349
-0.3539595 -0.19128537 0.58436418
-0.34997988 -0.19809711 0.58399665
-0.34422779 -0.20301056 0.58177513
-0.23955327 0.13286936 0.76740086
-0.24841601 0.13703716 0.76999873
-0.25429702 0.14501452 0.7708801
-0.26309472 0.1490941 0.77346814
-0.26895213 0.15703952 0.77434599
-0.2748096 0.16498482 0.77522385
-0.28653038 0.18088353 0.7769804
-0.28067291 0.17293811 0.77610254
-0.31851804 0.1418376 0.61507469
-0.31178409 0.13712907 0.61265123
-0.30708516 0.12918091 0.61219591
-0.30238056 0.12122476 0.61173975
-0.29499286 0.11725527 0.60879469
-0.29027033 0.10927504 0.60833585
-0.28341228 0.10439801 0.60589373
-0.27866614 0.096385837 0.60543138
-0.27175099 0.091438472 0.60299033
-0.26426709 0.087177455 0.60005099
-0.26230079 0.075316608 0.60210162
-0.254704 0.071056783 0.59911561
-0.24774593 0.065890074 0.59668827
-0.24294657 0.057805657 0.59621787
-0.23814738 0.049721301 0.59574753
-0.23105276 0.044523597 0.59326994
-0.22335607 0.039973974 0.59029865
-0.2185868 0.031776369 0.58986253
-0.21374607 0.023635864 0.58938599
-0.2089054 0.0154953 0.58890939
-0.2017464 0.010056019 0.58645195
-0.19688797 0.0018914938 0.58597273
-0.19445854 -0.0089852214 0.58751106
-0.18968934 -0.017182946 0.587075
-0.17933095 -0.01934278 0.58204156
-0.17452627 -0.027588606 0.58160013
-0.16653991 -0.032530963 0.57858539
-0.16170859 -0.04081285 0.5781399
-0.15995437 -0.052231669 0.58019263
-0.15514886 -0.060485601 0.57974148
-0.15345818 -0.071811259 0.58181334
-0.14545965 -0.076931238 0.57881689
-0.13734144 -0.08205241 0.57578236
-0.12752628 -0.018698514 0.66211641
-0.12145787 -0.026930094 0.66120696
-0.11539179 -0.035158455 0.66029787
-0.10593939 -0.040334642 0.65731686
-0.1540879 0.062227786 0.76911563
-0.31038851 0.15900707 0.70391351
-0.3045252 0.15105379 0.70303482
-0.29311043 0.15086114 0.69819534
-0.29000801 0.13900745 0.69929481
-0.28412694 0.13102996 0.69841343
-0.27824593 0.1230526 0.69753206
-0.3029595 0.16248989 0.72196102
-0.27695823 0.17467964 0.78512675
-0.010470152 -0.081984222 0.73993671
-0.48198456 -0.025408208 0.60492086
-0.48457974 -0.043383956 0.61302823
-0.48078692 -0.049942315 0.61268866
-0.47833079 -0.05882901 0.61411762
-0.47448432 -0.065306187 0.61374027
-0.46927136 -0.069495022 0.61158991
-0.077201188 0.0033025146 0.79449111
-0.077608645 0.0012076497 0.80565262
-0.071157575 -0.0048953295 0.79358542
-0.067327857 -0.0030999184 0.80288911
-0.065113962 -0.013093233 0.79267967
-0.061284244 -0.011297822 0.80198336
-0.059070349 -0.021291137 0.79177392
-0.055240631 -0.019495726 0.8010776
-0.049418986 -0.026374042 0.78927636
-0.045574307 -0.024571598 0.79861641
-0.043352902 -0.034602404 0.78836721
-0.039508224 -0.032799959 0.79770726
-0.037287474 -0.04282999 0.78745824
-0.29251522 0.16600919 0.7216413
-0.29933083 0.1704185 0.72374535
-0.28514731 0.16237557 0.71913612
-0.27832675 0.15780461 0.71706015
-0.2736634 0.14990473 0.71661013
-0.26899379 0.14199674 0.71616018
-0.26203704 0.13739467 0.71403313
-0.25735009 0.12946248 0.71357965
-0.25040573 0.12472308 0.71148413
-0.2428022 0.12076843 0.70894164
-0.23578733 0.11593258 0.70683455
-0.23104113 0.10792023 0.70637226
-0.2239731 0.10301232 0.70425725
-0.21928114 0.094918549 0.70383173
-0.21452314 0.08689034 0.70336753
-0.19481814 0.069468379 0.69822949
-0.19961709 0.077552974 0.69870079
-0.18757898 0.064327657 0.6960879
-0.18276244 0.056219041 0.69561398
-0.17487121 0.051717401 0.69305432
-0.17010272 0.043519437 0.69261628
-0.16526234 0.035378754 0.69213879
-0.16049349 0.02718091 0.69170183
-0.3060748 0.17441308 0.72093701
-0.29709619 0.1545366 0.72108233
-0.24942988 0.11983007 0.71915698
-0.24054974 0.11550862 0.71637291
-0.23459774 0.10743505 0.71548092
-0.45327222 -0.08210206 0.60497642
-0.44944179 -0.088718355 0.60462153
-0.44553608 -0.0952757 0.60423535
-0.43916249 -0.09813267 0.60082293
-0.4352392 -0.10471404 0.60043406
-0.42523354 -0.10253721 0.59274268
-0.42280334 -0.11138219 0.59418517
-0.41891003 -0.11807686 0.59383059
-0.41336936 -0.122563 0.59159172
-0.406277 -0.12501919 0.58754241
-0.40394777 -0.13388121 0.58902979
-0.39995724 -0.14056051 0.58862126
-0.14994448 0.025326133 0.68743622
-0.1418764 0.020583868 0.68484902
-0.13446748 0.015056849 0.68270874
-0.12954485 0.0068036914 0.68221796
-0.12144214 0.0018597841 0.67965436
-0.11657339 -0.0064746737 0.67920041
-0.11163014 -0.014755905 0.67870653
-0.10408866 -0.020463467 0.67654544
-0.09920007 -0.02882427 0.67608953
-0.090874791 -0.033917367 0.67346084
-0.082576632 -0.039127767 0.67086595
-0.077643514 -0.047549605 0.67040241
-0.069278359 -0.052851558 0.66779655
-0.39440149 -0.14521438 0.58641946
-0.39204592 -0.15396482 0.58786356
-0.28843158 0.15048087 0.71829283
-0.38412869 -0.16737705 0.58710498
-0.28255051 0.14250362 0.71741146
-0.27666944 0.13452613 0.71653008
-0.2679162 0.13035023 0.71372736
-0.25911528 0.12611032 0.71091843
-0.25026751 0.12180609 0.70810151
-0.12988931 -0.087889314 0.57328099
-0.12504399 -0.096196949 0.57282376
-0.1227805 -0.1068418 0.57439661
-0.12120491 -0.11801851 0.57647622
-0.11632454 -0.12621284 0.57599372
-0.10814375 -0.13157314 0.57297957
-0.10663545 -0.14265835 0.57506907
-0.10175514 -0.15085268 0.57458669
-0.093582094 -0.15636319 0.5715937
-0.10844642 0.010716856 0.74976152
-0.22865164 0.099369466 0.71458977
-0.22269964 0.091295838 0.71369779
-0.064322829 -0.061303914 0.66732955
-0.059295893 -0.069699168 0.6668222
-0.04809922 -0.072745383 0.66251224
-0.043103516 -0.081252217 0.66203922
-0.03810823 -0.08975929 0.66156542
-0.033112466 -0.098266125 0.6610924
-0.21675354 0.083230257 0.7128067
-0.016608357 -0.073658109 0.74085659
-0.022746444 -0.065331936 0.74177647
-0.032526016 -0.059972525 0.74443829
-0.073536515 -0.068035841 0.66058403
-0.48888487 -0.047151268 0.60801369
-0.24432141 0.11374044 0.70721036
-0.23836941 0.10566688 0.70631838
-0.23242331 0.097601295 0.70542723
-0.2264713 0.089527667 0.70453525
-0.46684456 -0.074955583 0.60247236
-0.45861417 -0.074546754 0.59656686
-0.45230883 -0.077338696 0.59312606
-0.45086038 -0.087744355 0.59582317
-0.44701439 -0.094374895 0.59547561
-0.44207001 -0.099441767 0.59383595
-0.22052521 0.081462085 0.70364416
-0.43123484 -0.10826194 0.58938622
-0.21151781 0.076941371 0.70080322
-0.20554805 0.068843722 0.69990855
-0.037110388 -0.044088542 0.79836047
-0.19957834 0.060746074 0.69901389
-0.023131728 -0.04440558 0.78303379
-0.023685992 -0.046226084 0.79432356
-0.017016053 -0.052701235 0.78211725
-0.010900259 -0.06099695 0.78120071
-0.0047851801 -0.06929183 0.78028423
-0.229087 0.14364386 0.82585406
-0.22389174 0.13779986 0.81440765
-0.22016323 0.13954782 0.82346553
-0.23280054 0.14190292 0.81683254
-0.21185696 0.13744462 0.81043398
-0.20500851 0.14302397 0.8180505
-0.20902729 0.12562501 0.81109983
-0.19938278 0.11936873 0.81930006
-0.29823297 0.16098523 0.71507585
-0.30284357 0.16881287 0.71551698
-0.28868598 0.16075778 0.71084499
-0.28180522 0.15623856 0.70870125
-0.27714181 0.14833868 0.70825124
-0.27027929 0.14369023 0.70613998
-0.26559234 0.13575816 0.70568651
-0.25868326 0.13104534 0.70356631
-0.25111163 0.12710804 0.70099187
-0.24638921 0.11912787 0.70053303
-0.23938549 0.11428672 0.69839871
-0.23463982 0.10627431 0.69793546
-0.22757703 0.10135299 0.6957922
-0.22281957 0.093324423 0.69532716
-0.21806198 0.085296094 0.69486207
-0.20798033 0.084031284 0.69060475
-0.20673114 0.082678795 0.70079494
-0.20318097 0.075946867 0.69013435
-0.19597125 0.070824742 0.68796718
-0.19122636 0.062658846 0.68753278
-0.18640977 0.054550171 0.68705887
-0.17853266 0.050041974 0.68446445
-0.17369246 0.041901231 0.68398702
-0.16331685 0.040081799 0.67971236
-0.16156644 0.028380692 0.68135977
-0.15678018 0.020158648 0.68091917
-0.14302534 0.021659672 0.67444468
-0.13818002 0.013357401 0.6739952
-0.13325739 0.0051042438 0.67350441
-0.12841195 -0.003197968 0.67305499
-0.12022883 -0.0081235766 0.67041183
-0.11535686 -0.016461909 0.66995841
-0.1104151 -0.024741709 0.66946381
-0.10286707 -0.030478656 0.66727275
-0.094628036 -0.035634756 0.66465002
-0.086343944 -0.040851772 0.6620205
-0.081410944 -0.04927367 0.66155696
-0.073059976 -0.054582238 0.65891647
-0.042984486 -0.055273473 0.74744105
-0.052670121 -0.050041556 0.75008881
-0.05873549 -0.04181397 0.75099778
-0.064801574 -0.033585608 0.75190693
-0.19048232 0.056105196 0.69615978
-0.18134445 0.051408231 0.69330037
-0.17532748 0.043246448 0.69239861
-0.16931045 0.035084665 0.69149685
-0.15944135 0.030934632 0.68822867
-0.15339476 0.022732794 0.6873225
-0.14735413 0.014538884 0.68641722
-0.14130753 0.006336987 0.68551105
-0.1352669 -0.0018568635 0.68460578
-0.12922031 -0.010058761 0.68369961
-0.1198346 -0.015092552 0.68080205
-0.068104565 -0.063034594 0.65844953
-0.063077629 -0.071429849 0.65794218
-0.051907003 -0.074487209 0.65357041
-0.046911716 -0.082994223 0.65309644
-0.041915476 -0.091501951 0.65262347
-0.036848605 -0.099951863 0.65210915
-0.11376619 -0.023324132 0.6798926
-0.19093788 0.11705011 0.80620909
-0.19663894 0.10763818 0.81994003
-0.20312262 0.11761552 0.81021488
-0.18498588 0.10897648 0.80531704
-0.18121231 0.11074555 0.81448424
-0.17903972 0.1009109 0.80442595
-0.17526621 0.10267997 0.81359315
-0.17308772 0.092837274 0.80353391
-0.16931421 0.09460634 0.81270111
-0.16714168 0.084771693 0.80264282
-0.16336817 0.086540759 0.81181002
-0.16118968 0.076698065 0.8017509
-0.15741616 0.078467131 0.81091797
-0.15524364 0.068632424 0.80085969
-0.15147007 0.07040149 0.81002688
-0.10770011 -0.031552494 0.67898351
-0.098219275 -0.036715329 0.67607164
-0.095567942 -0.048009157 0.67716533
-0.089501858 -0.056237519 0.67625618
-0.079953671 -0.061491787 0.67333424
-0.066153884 -0.063275278 0.66798705
-0.063543439 -0.074513793 0.66908675
-0.48970997 -0.080310047 0.60199881
-0.057427704 -0.082809508 0.66817021
-0.047739983 -0.088253021 0.66522741
-0.045196831 -0.099400103 0.66633719
-0.29956371 0.16278696 0.70512915
-0.29493546 0.15493512 0.70468545
-0.28535503 0.15461552 0.70038277
-0.28068584 0.14670742 0.69993192
-0.27384084 0.14206159 0.6977933
-0.26688349 0.13741672 0.69560724
-0.25942105 0.13344783 0.6930421
-0.25239283 0.12870651 0.69084543
-0.24765295 0.12070209 0.69038302
-0.24297822 0.11263275 0.68996108
-0.2382381 0.10462844 0.68949956
-0.035463572 -0.10490531 0.6633876
-0.1005199 -0.0096951723 0.70499307
-0.23118734 0.099701524 0.68732721
-0.2264294 0.091673255 0.68686306
-0.22167182 0.083644807 0.68639803
-0.21397382 0.079354703 0.68379569
-0.20681667 0.07428354 0.68160743
-0.19961846 0.069155991 0.67941207
-0.19480187 0.061047316 0.67893815
-0.19005674 0.052881539 0.67850465
-0.18218803 0.048358679 0.67587477
-0.17735362 0.040225923 0.67539823
-0.16693246 0.038451493 0.67102027
-0.16523927 0.02669996 0.67274278
-0.16038156 0.018534958 0.67226171
-0.14673829 0.019960046 0.66573024
-0.1418215 0.011714995 0.66524029
-0.13697028 0.0034047365 0.66479003
-0.13205343 -0.0048404336 0.66430008
-0.12720227 -0.013150692 0.66384977
-0.11901319 -0.018110156 0.66116899
-0.11414248 -0.026446879 0.6607157
-0.10329211 -0.028960824 0.65629846
-0.098380625 -0.03735292 0.65583909
-0.090111852 -0.042576015 0.6531741
-0.081797183 -0.047860682 0.65050334
-0.076841652 -0.056312978 0.65003639
-0.069131672 -0.062292278 0.64778918
-0.064157903 -0.070769548 0.6473195
-0.055714548 -0.076230168 0.64462751
-0.050719261 -0.084737182 0.64415365
-0.042208552 -0.090289176 0.64145154
-0.040656745 -0.10169387 0.64316636
-0.064207613 -0.055450439 0.72206032
-0.066741824 -0.044184744 0.72113377
-0.072830379 -0.035925925 0.7220462
-0.078918874 -0.027667105 0.72295868
-0.088471293 -0.022537827 0.72569668
-0.097978413 -0.017469227 0.72842878
-0.10402203 -0.0092713833 0.72933447
-0.11006266 -0.0010774732 0.73023981
-0.11610925 0.007124424 0.73114598
-0.12214988 0.015318274 0.73205125
-0.13218755 0.01954025 0.73512334
-0.14598829 0.064066231 0.79839247
-0.14001852 0.055968583 0.79749781
-0.13404882 0.047870874 0.79660314
-0.12807316 0.039765179 0.79570758
-0.11871517 0.035052896 0.79321527
-0.10930026 0.0302701 0.79072416
-0.29356885 0.16089225 0.69251341
-0.30033153 0.16544712 0.69466871
-0.2866931 0.15633833 0.69031149
-0.28201205 0.14841425 0.68985891
-0.27515501 0.143731 0.68768853
-0.27045029 0.13577473 0.68723232
-0.26293665 0.13186431 0.68459314
-0.25821418 0.12388414 0.6841343
-0.2512452 0.1190483 0.68194616
-0.24650544 0.11104393 0.68148381
-0.2417652 0.10303962 0.68102235
-0.23472577 0.098107457 0.67882276
-0.23003918 0.090022027 0.67839891
-0.13820457 0.027702093 0.73602509
-0.14750814 0.032493889 0.73872578
-0.1147334 0.01675117 0.76202154
-0.34941924 0.10848051 0.59892642
-0.34480482 0.10080779 0.59846377
-0.33615685 0.099499643 0.59383821
-0.33158213 0.091719806 0.59340155
-0.32907236 0.08081609 0.59504378
-0.3224386 0.076168358 0.592529
-0.22528166 0.08199358 0.67793387
-0.10539234 -0.0013560653 0.7054466
-0.21759796 0.0776968 0.67529702
-0.21045238 0.072620153 0.67308044
-0.20326549 0.067487359 0.67085779
-0.19844884 0.059378684 0.67038387
-0.1906181 0.054881155 0.66772306
-0.18584919 0.046683371 0.66728592
-0.18100893 0.038542628 0.66680849
-0.17369825 0.033241332 0.66456634
-0.16891205 0.025019169 0.66412568
-0.16093385 0.020321071 0.66144174
-0.15290886 0.01555866 0.65874988
-0.14553404 0.010015547 0.6565268
-0.14068288 0.0017052889 0.65607649
-0.13255167 -0.0032015443 0.65336764
-0.12768269 -0.011535883 0.65291464
-0.12273997 -0.019816279 0.65242088
-0.11786962 -0.028153181 0.65196663
-0.10704482 -0.030679047 0.64748746
-0.098812342 -0.035878241 0.64479226
-0.093807876 -0.044242918 0.64428824
-0.08887428 -0.052665651 0.64382464
-0.08055228 -0.057986736 0.64111501
-0.072853565 -0.063971341 0.6388405
-0.067880332 -0.072447777 0.63837093
-0.062907159 -0.080924153 0.63790137
-0.057933748 -0.089401543 0.63743073
-0.049460232 -0.094928861 0.63469744
-0.040941656 -0.10051823 0.63195652
-0.31996053 0.065314531 0.59418571
-0.31752163 0.054507017 0.59583861
-0.30652499 0.055938065 0.58909148
-0.30193257 0.048134327 0.58865219
-0.301673 0.034364939 0.59241086
-0.29275364 0.032534659 0.5877744
-0.28816706 0.024738908 0.58733594
-0.28357476 0.016934991 0.5868966
-0.27891672 0.0091964006 0.58641768
-0.2743243 0.0013926029 0.58597833
-0.27427965 -0.012078345 0.5897789
-0.26972866 -0.019826055 0.58934575
-0.26055503 -0.022001028 0.58467114
-0.25596261 -0.029804766 0.58423173
-0.25372094 -0.04033792 0.58592391
-0.24018812 -0.076674044 0.58842009
-0.24472743 -0.068942487 0.58885145
-0.21283036 -0.12291509 0.58576369
-0.21493304 -0.11272448 0.58408046
-0.20328629 -0.12575346 0.58105361
-0.11448705 0.018910706 0.7506668
-0.20933396 0.067068875 0.69071144
-0.13947636 -0.21314108 0.57971424
-0.14133555 -0.20310622 0.57799369
-0.14869076 -0.19749349 0.58059734
-0.15593904 -0.19187164 0.58315516
-0.15528244 -0.17961884 0.57936692
-0.15658092 -0.16890019 0.5771299
-0.22847229 0.11883444 0.75477958
-0.23440063 0.12687594 0.75566804
-0.24626344 0.12731177 0.76005948
-0.25214458 0.13528919 0.76094085
-0.25802559 0.14326656 0.76182222
-0.26390666 0.15124404 0.7627036
-0.27266645 0.15529823 0.76532269
-0.27852392 0.16324353 0.76620054
-0.2902447 0.17914224 0.76795709
-0.28438723 0.17119682 0.76707923
-0.29922426 0.15595341 0.68593115
-0.30653477 0.15961385 0.68857569
-0.29237759 0.15141821 0.68370456
-0.28556734 0.14677787 0.68151224
-0.28088617 0.13885379 0.6810596
-0.27620512 0.13092965 0.68060696
-0.26932412 0.12619281 0.67840302
-0.26461953 0.11823672 0.67794687
-0.25484389 0.11740237 0.67350936
-0.25010365 0.10939801 0.6730479
-0.24309319 0.10448468 0.67082363
-0.23833555 0.09645623 0.6703586
-0.23071337 0.092217028 0.66769415
-0.22593212 0.084156454 0.66722554
-0.2211507 0.076096058 0.66675788
-0.21401078 0.071005881 0.66451222
-0.20691246 0.065818667 0.66230357
-0.20208991 0.057702065 0.6618287
-0.19427931 0.053205788 0.65913421
-0.18943894 0.045065165 0.65865672
-0.18467057 0.036867142 0.65821874
-0.17737108 0.03156054 0.65594923
-0.16942495 0.026879728 0.65323347
-0.16462088 0.018633664 0.65279007
-0.15409184 0.01661849 0.64826274
-0.19871521 -0.13352841 0.58061743
-0.19664794 -0.14367086 0.58230597
-0.19720614 -0.15616333 0.58617687
-0.19522816 -0.16618472 0.5878787
-0.18809932 -0.17151099 0.58528018
-0.17842984 -0.1746735 0.58058095
-0.17647022 -0.18467003 0.58228564
-0.1719346 -0.19239694 0.58185476
-0.16469765 -0.19786984 0.5792399
-0.16014421 -0.20562077 0.57880646
-0.15292549 -0.21122301 0.57622409
-0.1564002 -0.22536922 0.58225173
-0.15188229 -0.23307204 0.58182353
-0.20027578 0.06245333 0.68782622
-0.12455881 0.023116708 0.75365603
-0.14924699 0.00831604 0.64781231
-0.14432436 6.28829e-05 0.64732158
-0.13627851 -0.0049076676 0.64461946
-0.13133848 -0.013184965 0.64412522
-0.12646705 -0.021522462 0.64367187
-0.11897188 -0.027250767 0.6413998
-0.11079806 -0.032396376 0.63867664
-0.10257983 -0.037602246 0.63594687
-0.097575307 -0.045967042 0.63544285
-0.089289546 -0.05126524 0.63270193
-0.084334016 -0.059717536 0.63223499
-0.079379201 -0.068169057 0.63176817
-0.071673632 -0.074183941 0.62946266
-0.066700459 -0.082660258 0.62899303
-0.058263123 -0.088164687 0.62622851
-0.053267777 -0.09667176 0.62575459
-0.044764042 -0.10226697 0.62297916
-0.046735883 -0.11650974 0.62707323
-0.15350151 0.040623665 0.7396239
-0.16273421 0.045319259 0.74231398
-0.16548824 0.056883156 0.74142039
-0.17467368 0.061514556 0.74410331
-0.15130293 -0.14167285 0.57743633
-0.15346354 -0.13136262 0.57581973
-0.15558499 -0.12094468 0.57417727
-0.16547328 -0.11772823 0.57881325
-0.17019695 -0.10974652 0.57927233
-0.20773196 0.078716278 0.7100004
-0.2017622 0.070618629 0.70910573
-0.16453671 -0.16392404 0.58024639
-0.16587567 -0.15314347 0.5780251
-0.17633778 -0.15055209 0.58323759
-0.18354988 -0.14513338 0.58581978
-0.17982215 -0.12950933 0.57935882
-0.18446964 -0.12163097 0.57980645
-0.19228739 -0.116835 0.58291185
-0.19944578 -0.11148924 0.58548594
-0.20405304 -0.10366535 0.58592749
-0.22165239 -0.058599234 0.58338767
-0.22629797 -0.050723195 0.58383501
-0.23559523 -0.03496325 0.58473051
-0.2378847 -0.024344683 0.58307451
-0.24254811 -0.016444743 0.58352453
-0.24489677 -0.0057458878 0.58187735
-0.24958378 0.0021861196 0.58233094
-0.26402426 -0.0020110011 0.59169954
-0.26636696 0.0086797476 0.59005153
-0.270989 0.01652354 0.59049535
-0.054479599 -0.0578022 0.69634777
-0.31330454 0.16404474 0.69079065
-0.30740851 0.16221142 0.67808723
-0.31468123 0.16584659 0.68076289
-0.30059123 0.15769506 0.67583513
-0.29592788 0.14979506 0.67538524
-0.28912878 0.14514935 0.6731655
-0.28444767 0.13722515 0.67271286
-0.27976072 0.12929314 0.67225939
-0.27282554 0.12461609 0.66998863
-0.26538855 0.12060291 0.66731626
-0.25837106 0.11581349 0.66503215
-0.2513895 0.11091876 0.66278327
-0.24670303 0.10283345 0.66235948
-0.23904729 0.098676682 0.65962362
-0.23426598 0.090616167 0.65915501
-0.22955626 0.082498491 0.65872681
-0.22477508 0.074437976 0.65825826
-0.21764612 0.069342673 0.65598625
-0.21048212 0.06419915 0.65370804
-0.20573688 0.056033373 0.6532746
-0.19794047 0.0515306 0.65054536
-0.19310057 0.043389618 0.65006703
-0.18826032 0.035248935 0.64958948
-0.18104392 0.029879749 0.64733225
-0.17618579 0.021714985 0.64685208
-0.16823649 0.017003357 0.64409804
-0.15780479 0.014918923 0.63954824
-0.152888 0.0066738129 0.63905835
-0.14803678 -0.0016364455 0.63860798
-0.13993418 -0.0065567493 0.63583004
-0.13826883 -0.018191934 0.63766778
-0.13019443 -0.023227811 0.63492376
-0.12263888 -0.028905153 0.63258302
-0.11447984 -0.034056664 0.62982535
-0.10627586 -0.039269149 0.62706095
-0.098027289 -0.044542789 0.62428886
-0.093071818 -0.052995145 0.62382197
-0.088116288 -0.061447442 0.62335503
-0.083089471 -0.069842696 0.62284768
-0.075467587 -0.07591933 0.62055445
-0.067066908 -0.081399858 0.61775863
-0.062071264 -0.089906812 0.61728573
-0.053604186 -0.095478177 0.61447901
-0.048586488 -0.10401571 0.61400175
-0.05328542 -0.12049979 0.62000471
-0.18059695 -0.10728043 0.58441758
-0.18528038 -0.099353075 0.58487058
-0.18743694 -0.088894367 0.58322364
-0.18095201 -0.069524944 0.57431179
-0.18882966 -0.064675093 0.57738751
-0.19599169 -0.05919081 0.57990342
-0.18064934 0.069620252 0.74499881
-0.18661904 0.0777179 0.74589348
-0.19258881 0.085815549 0.74678814
-0.20166737 0.090302885 0.74945605
-0.20761347 0.098368466 0.75034714
-0.21356547 0.10644209 0.75123912
-0.29553056 0.16597271 0.74000847
-0.30138803 0.17391813 0.74088633
-0.28966725 0.15801942 0.73912978
-0.28097409 0.15397704 0.73640954
-0.27561694 0.024375498 0.59094
-0.28023887 0.03221941 0.59138376
-0.28925759 0.034143329 0.59597719
-0.29384416 0.04193908 0.5964157
-0.28920537 0.06258744 0.58802783
-0.29386872 0.07048744 0.58847785
-0.30549002 0.06839776 0.59566408
-0.31010014 0.076225638 0.59610605
-0.3126201 0.087156951 0.59448463
-0.31460416 0.0989663 0.59233028
-0.31719732 0.11000359 0.59072948
-0.31975824 0.12114435 0.58908451
-0.32653004 0.1258117 0.5916304
-0.33380741 0.14492464 0.59044331
-0.33319259 0.1304782 0.5941205
-0.31350595 0.15644073 0.67202216
-0.32237196 0.15747201 0.67611855
-0.30622387 0.15276694 0.66930842
-0.29729998 0.15150189 0.66523105
-0.29261887 0.14357781 0.66477835
-0.28793776 0.13565373 0.66432577
-0.27618951 0.13818061 0.65798163
-0.27144933 0.13017637 0.65752023
-0.26670945 0.12217194 0.65705776
-0.26196927 0.11416763 0.6565963
-0.25722951 0.10616326 0.65613389
-0.25255477 0.098093927 0.65571189
-0.19827592 -0.04855901 0.57827568
-0.20547211 -0.043182433 0.58082646
-0.24548388 0.093210757 0.65338993
-0.23789006 0.088958204 0.65065628
-0.23310894 0.080897689 0.65018767
-0.22600931 0.075821102 0.64789015
-0.21894568 0.070639193 0.64562768
-0.21412903 0.062530577 0.64515376
-0.20931244 0.054421842 0.6446799
-0.20456749 0.046255946 0.64424545
-0.19676179 0.04171437 0.64147818
-0.19192147 0.033573627 0.64100069
-0.18708146 0.025432765 0.6405223
-0.17985862 0.020034194 0.63823503
-0.17192358 0.01531589 0.63544649
-0.16151732 0.013219535 0.63083476
-0.15660059 0.0049744248 0.63034475
-0.15174931 -0.0033358932 0.62989444
-0.14683294 -0.011581123 0.62940371
-0.14198166 -0.019891381 0.62895334
-0.13385016 -0.024876833 0.62613434
-0.12314355 -0.027382672 0.62147468
-0.1149767 -0.032571554 0.61867821
-0.11004263 -0.040993989 0.61821532
-0.10510963 -0.049415946 0.6177519
-0.096853495 -0.054725826 0.61494195
-0.091826558 -0.063121021 0.61443454
-0.084233761 -0.069178879 0.61211669
-0.075870454 -0.074634969 0.60928982
-0.070875108 -0.083141983 0.60881591
-0.065807998 -0.091591716 0.60830247
-0.057426572 -0.097226858 0.60550165
-0.052408874 -0.10576439 0.6050244
-0.047319233 -0.11424458 0.60450757
-0.27509302 0.14599979 0.73552811
-0.12074447 0.024904907 0.76292241
-0.063907325 -0.073425829 0.65761322
-0.35395253 0.11620408 0.59935689
-0.35682768 0.10044533 0.59501332
-0.3633619 0.10482478 0.59757191
-0.35232979 0.092769742 0.5945881
-0.34984046 0.081921279 0.59627217
-0.34536034 0.074269772 0.59584963
-0.34291822 0.063485265 0.5975408
-0.3384558 0.055857956 0.59712088
-0.1267615 0.03306675 0.76382411
-0.27209496 0.13418341 0.73649627
-0.26042992 0.13385987 0.73191416
-0.25452518 0.12585038 0.73102915
-0.24862045 0.11784089 0.73014426
-0.2367785 0.11727667 0.72553456
-0.2308265 0.1092031 0.72464257
-0.2248804 0.10113752 0.72375143
-0.2189284 0.093063891 0.72285944
-0.2129823 0.08499831 0.72196835
-0.31915557 0.15144873 0.66562235
-0.31905407 0.16690087 0.66191101
-0.32760257 0.057568967 0.59026885
-0.32735276 0.043706775 0.59412646
-0.32068634 0.039141059 0.59153843
-0.31404614 0.034464061 0.58899367
-0.30945921 0.026821554 0.58852535
-0.30935121 0.013151705 0.59240413
-0.30925232 -0.00035852194 0.59624493
-0.29576576 -0.02306062 0.59492064
-0.29132122 -0.030664027 0.59450346
-0.28231192 -0.032657146 0.58979547
-0.28005856 -0.043031752 0.59148514
-0.27790612 -0.053423285 0.5932197
-0.26646644 -0.052822292 0.58632964
-0.24839401 -0.083473563 0.58459669
-0.25527871 -0.078458011 0.58718783
-0.24624097 -0.093711793 0.58630139
-0.21707177 -0.10248494 0.58240259
-0.23315197 -0.12924415 0.588902
-0.23272014 -0.11661458 0.58500177
-0.21726376 -0.14961463 0.58546901
-0.21272814 -0.15718734 0.5850085
-0.20826399 -0.16481709 0.58458835
-0.20380038 -0.17244613 0.58416831
-0.31240797 0.14698589 0.66332269
-0.30295032 0.14659786 0.65870702
-0.29618001 0.14194942 0.65643269
-0.28936875 0.13724458 0.65415132
-0.28193605 0.13333941 0.65137631
-0.27497649 0.12858748 0.64904296
-0.27030772 0.12052608 0.64862192
-0.2655679 0.11252171 0.6481595
-0.26082188 0.10450935 0.64769715
-0.25608194 0.096505046 0.64723468
-0.24908775 0.091551602 0.64492488
-0.24151456 0.087300122 0.64215672
-0.23444402 0.08224225 0.63983452
-0.22964501 0.074157715 0.63936323
-0.22252125 0.069027662 0.63703299
-0.22011864 0.057931364 0.63846117
-0.21295971 0.052753091 0.63612473
-0.20519179 0.048236847 0.63332635
-0.20035154 0.040096164 0.63284892
-0.19558263 0.031898379 0.63241184
-0.18831223 0.02656728 0.63005686
-0.18041456 0.021874666 0.62723804
-0.17254162 0.017060459 0.62445176
-0.16515881 0.01157707 0.62207985
-0.16031355 0.003274858 0.62163043
-0.1553908 -0.0049782395 0.62113959
-0.14738816 -0.0099690557 0.61833286
-0.14244765 -0.018246174 0.6178394
-0.13757694 -0.026582897 0.61738616
-0.12689626 -0.029100835 0.61266369
-0.11874413 -0.034295559 0.6098327
-0.11054617 -0.039551854 0.6069957
-0.10559106 -0.048004389 0.60652792
-0.10387266 -0.059504747 0.60840231
-0.095608711 -0.064851999 0.60555357
-0.090653121 -0.073304296 0.60508662
-0.082982481 -0.079334378 0.60269845
-0.07128489 -0.081900775 0.59747785
-0.066266835 -0.090438128 0.59700155
-0.061249018 -0.098975599 0.59652424
-0.052765489 -0.10462129 0.59364164
-0.05114162 -0.11599332 0.59553027
-0.13057584 0.031278551 0.75455779
-0.13659286 0.039440334 0.75545949
-0.14590126 0.044186771 0.7580874
-0.15189463 0.052316487 0.75898564
-0.20187891 -0.18236357 0.58591741
-0.19479686 -0.18764693 0.58329678
-0.1929152 -0.19751716 0.58504212
-0.18839788 -0.20506501 0.5845843
-0.18656629 -0.21486056 0.58634686
-0.17950189 -0.22027397 0.58375853
-0.17498463 -0.22782183 0.58330071
-0.17053819 -0.23542768 0.5828833
-0.16608852 -0.24303079 0.58247495
-0.19428241 0.054323614 0.68692803
-0.18828899 0.046193898 0.68602985
-0.1957925 0.062520981 0.70821106
-0.18668216 0.05788672 0.70539153
-0.2070303 0.076924682 0.72107631
-0.19797629 0.072393477 0.71830285
-0.19200659 0.064295828 0.71740824
-0.32055449 0.15321851 0.65551001
-0.31840038 0.17208207 0.64985704
-0.31592649 0.14536667 0.6550653
-0.30650026 0.14497471 0.65038854
-0.29973567 0.14031291 0.64808512
-0.29505455 0.13238871 0.64763248
-0.28816527 0.12771183 0.6452806
-0.28079474 0.12371051 0.64250803
-0.27383494 0.11893731 0.64014465
-0.26916069 0.11086768 0.63972181
-0.26442039 0.10286349 0.63926029
-0.25746155 0.09793663 0.63692582
-0.25269765 0.089900315 0.63646072
-0.24506724 0.08569932 0.63361758
-0.23800826 0.080636024 0.63126713
-0.17753011 0.05319643 0.70256668
-0.23328042 0.072494507 0.6308372
-0.22616851 0.067358851 0.62847781
-0.22135192 0.059250176 0.62800395
-0.21660668 0.051084459 0.62757051
-0.21178997 0.042975783 0.62709659
-0.20401269 0.038420796 0.62426007
-0.19917274 0.030279994 0.62378168
-0.19198459 0.024886727 0.62144059
-0.18712699 0.016721845 0.62095958
-0.17922592 0.011998296 0.61810362
-0.16887134 0.0098776817 0.61336631
-0.16395456 0.0016326308 0.61287642
-0.15910333 -0.0066776872 0.61242604
-0.15425801 -0.014979899 0.61197662
-0.14617479 -0.019952416 0.60909033
-0.14130408 -0.028289139 0.60863715
-0.13064945 -0.030818224 0.60385287
-0.12566751 -0.039152563 0.60335225
-0.11750656 -0.044385135 0.60048318
-0.11257356 -0.052807093 0.60001963
-0.10764015 -0.061228812 0.59955692
-0.10263568 -0.069593549 0.59905291
-0.094363391 -0.074977875 0.59616613
-0.08940798 -0.083430231 0.59569925
-0.07841897 -0.086569548 0.59089077
-0.073423624 -0.095076621 0.59041685
-0.06842798 -0.10358346 0.58994389
-0.059981108 -0.10920537 0.58703005
-0.05496347 -0.11774284 0.5865528
-0.157888 0.060446262 0.75988388
-0.16710192 0.065064251 0.7624976
-0.17307758 0.073169947 0.7633931
-0.32400745 0.1516645 0.64721298
-0.31676209 0.14796269 0.64439458
-0.30791277 0.14667332 0.64015156
-0.30322564 0.13874137 0.63969803
-0.29644275 0.13403404 0.63736284
-0.29173809 0.12607795 0.63690668
-0.28431028 0.12212718 0.63405901
-0.27742755 0.11728328 0.63170701
-0.27268749 0.10927904 0.63124549
-0.18603092 0.056190133 0.71651274
-0.17688864 0.051538527 0.71372509
-0.17089528 0.043408751 0.71282685
-0.16490191 0.035279036 0.71192867
-0.15566468 0.03049922 0.70912778
-0.14573193 0.026325226 0.70593804
-0.13969129 0.018131316 0.70503277
-0.26794755 0.10127467 0.63078308
-0.32410163 0.13696492 0.60871267
-0.26099402 0.096334457 0.62842041
-0.25623649 0.088306069 0.62795532
-0.33084053 0.14153969 0.61118597
-0.317393 0.13227677 0.60627365
-0.31271178 0.12435275 0.60582095
-0.25155002 0.08022058 0.62753171
-0.30595362 0.1195907 0.60336488
-0.29858088 0.11561424 0.60038334
-0.29385847 0.10763395 0.59992456
-0.2870115 0.10275179 0.59745508
-0.28226554 0.094739497 0.59699279
-0.27536166 0.089786828 0.59452444
-0.26789272 0.085518837 0.59154862
-0.24164361 0.078972816 0.6227411
-0.23684466 0.070888281 0.62226987
-0.22981554 0.065690219 0.61992371
-0.22499883 0.057581544 0.61944979
-0.21728301 0.053084075 0.61658573
-0.21244276 0.044943392 0.6161083
-0.20767432 0.036745369 0.61567032
-0.20044404 0.03142786 0.61326331
-0.19558597 0.023263156 0.61278313
-0.19079977 0.015041053 0.6123426
-0.18594772 0.0068842769 0.61186337
-0.17258424 0.0081781149 0.60465181
-0.16766751 -6.6995621e-05 0.60416198
-0.16281629 -0.0083771944 0.60371161
-0.15477067 -0.013324201 0.60079527
-0.14990157 -0.02165848 0.60034221
-0.13931358 -0.024144351 0.5955013
-0.13752222 -0.035692453 0.59743738
-0.1294207 -0.040869892 0.59454143
-0.12127399 -0.046109259 0.59163767
-0.11634105 -0.054531097 0.59117413
-0.11133653 -0.062895894 0.59067011
-0.10310066 -0.068256319 0.58775306
-0.098145127 -0.076708674 0.58728611
-0.093189657 -0.08516103 0.58681923
-0.08222717 -0.088311613 0.58194792
-0.077231228 -0.096819401 0.58147401
-0.068821728 -0.10241675 0.57852906
-0.063803554 -0.11095405 0.57805264
-0.055327713 -0.11664212 0.57509673
-0.30667382 0.1607486 0.71293771
-0.30980337 0.17266512 0.71187907
-0.26583993 0.073722124 0.59359527
-0.26115346 0.065636814 0.59317154
-0.25354803 0.061337769 0.59014553
-0.24883783 0.053220272 0.58971828
-0.24687374 0.041543841 0.59177822
-0.24211949 0.033513844 0.59130496
-0.23218554 0.031888545 0.58627719
-0.1336447 0.0099294186 0.7041266
-0.12760407 0.001735568 0.70322132
-0.12155747 -0.0064663291 0.70231515
-0.054233789 -0.078876019 0.65463579
-0.05163157 -0.0900774 0.65577352
-0.36976165 0.083465576 0.59714401
-0.37424821 0.090971649 0.59759718
-0.36732614 0.072710454 0.59886509
-0.36492592 0.062003493 0.60059142
-0.35490906 0.06320262 0.59425944
-0.35048211 0.055623353 0.59384495
-0.34966129 0.042612433 0.5971933
-0.11214292 -0.01148665 0.69948769
-0.22745764 0.023747027 0.5858472
-0.22500515 0.012859583 0.58741111
-0.22315329 0.0013355017 0.58948785
-0.2154361 -0.003269136 0.58647484
-0.20593554 -0.005918622 0.58195496
-0.20353627 -0.016733944 0.58352679
-0.19637287 -0.022192657 0.58104926
-0.3203007 0.14634478 0.63610339
-0.32752585 0.15004528 0.63895547
-0.3135227 0.14177752 0.63371032
-0.30678684 0.13711286 0.63135219
-0.30000961 0.13239217 0.62898797
-0.29531121 0.12444401 0.62853181
-0.28577191 0.12364984 0.62373346
-0.28102624 0.11563724 0.62327015
-0.27628607 0.10763305 0.62280869
-0.26936179 0.1027115 0.62042046
-0.26460391 0.09468317 0.61995637
-0.33262193 0.02541405 0.59211409
-0.32599843 0.020893037 0.58951312
-0.32076705 -0.01284945 0.59634292
-0.32684016 -0.034146667 0.60622633
-0.29697871 -0.035053551 0.58869374
-0.30140561 -0.027474225 0.58910829
-0.29872799 -0.050301254 0.59423476
-0.29206365 -0.055031657 0.59165734
-0.2875948 -0.062513769 0.59120685
-0.25864923 -0.10502487 0.58648497
-0.25239813 -0.11063206 0.58441168
-0.24419796 -0.10395509 0.58805227
-0.24975044 -0.12009025 0.58561945
-0.23965859 -0.11152601 0.58760083
-0.24772757 -0.1301316 0.5873726
-0.24573696 -0.14012229 0.5891403
-0.22807473 -0.17006296 0.58743918
-0.2324537 -0.1625486 0.58784652
-0.22619534 -0.17990947 0.58921385
-0.22175884 -0.18734086 0.58877778
-0.21993333 -0.19711447 0.59056062
-0.21558607 -0.20457894 0.59016764
-0.21117163 -0.21198732 0.58972526
-0.25984633 0.086654782 0.61949128
-0.25230956 0.082375407 0.61661929
-0.24752843 0.074314952 0.61615068
-0.24048036 0.069224834 0.61374289
-0.23803741 0.058136702 0.61525393
-0.22864586 0.055912852 0.61089551
-0.22382909 0.047804296 0.61042154
-0.21610433 0.043267846 0.60751855
-0.21126407 0.035127163 0.60704112
-0.20649517 0.026929319 0.60660398
-0.1992588 0.021582365 0.60416615
-0.19440079 0.013417542 0.60368603
-0.18659413 0.0086153746 0.6007995
-0.17622536 0.0065359473 0.59589791
-0.17137998 -0.001766324 0.59544837
-0.16645741 -0.010019481 0.59495765
-0.15849733 -0.015030265 0.59204715
-0.15362877 -0.023364723 0.59159321
-0.14614922 -0.029042244 0.58911788
-0.1412611 -0.037403226 0.58866107
-0.13317329 -0.042588055 0.58573037
-0.12504148 -0.047833323 0.58279222
-0.12003708 -0.056198061 0.58228827
-0.11510402 -0.064619899 0.58182466
-0.10688293 -0.069986284 0.57887316
-0.10192788 -0.078438759 0.57840526
-0.096972406 -0.086891115 0.57793832
-0.089318335 -0.092961371 0.57546371
-0.080967546 -0.098504126 0.57249177
-0.072643042 -0.10416496 0.56955439
-0.06762749 -0.1127035 0.56907171
-0.059165001 -0.11839789 0.56608295
-0.19155586 -0.030301154 0.5805763
-0.18920392 -0.041052341 0.58215523
-0.18688959 -0.051745653 0.58374947
-0.17406529 -0.051472783 0.57661641
-0.1692251 -0.059612393 0.57613993
-0.16445649 -0.067809343 0.57570386
-0.15961635 -0.075949013 0.57522738
-0.15797734 -0.087184489 0.57733601
-0.15315974 -0.09529376 0.57686299
-0.14517188 -0.10042632 0.57382947
-0.30081052 0.15279531 0.71205902
-0.20416814 -0.21718454 0.58708739
-0.19980735 -0.22467417 0.58668274
-0.1927501 -0.22994429 0.58403683
-0.19101012 -0.239595 0.58584207
-0.18657744 -0.24702823 0.58539695
-0.18489116 -0.25660604 0.58721024
-0.18249887 -0.26556373 0.58842653
-0.17914182 0.041458249 0.68313223
-0.17151314 0.045034647 0.70166492
-0.16549611 0.036872864 0.70076317
-0.15560973 0.032730937 0.69753689
-0.14033186 -0.10856611 0.57335293
-0.14400142 -0.12440568 0.5796119
-0.13403583 -0.1278469 0.57504231
-0.1292181 -0.13595611 0.57456923
-0.12709939 -0.14638394 0.5761928
-0.1196543 -0.15223175 0.57366335
-0.1201638 -0.16476625 0.57731366
-0.11545306 -0.17288452 0.57688636
-0.10607451 -0.01971823 0.69857824
-0.10000843 -0.027946591 0.69766915
-0.14956313 0.024529099 0.69663072
-0.1435225 0.016335189 0.69572544
-0.11404693 -0.1836499 0.57900012
-0.32383901 0.14472711 0.62781322
-0.333058 0.14513195 0.63262737
-0.3150295 0.14340842 0.62345821
-0.31034839 0.13548434 0.62300557
-0.30566126 0.12755227 0.62255204
-0.29613531 0.12688345 0.61766022
-0.28929323 0.12205291 0.61525536
-0.28455305 0.11404866 0.61479384
-0.28203493 0.10287696 0.61631966
-0.2751441 0.097983062 0.61391127
-0.26821554 0.093031108 0.61148763
-0.26345772 0.08500278 0.61102349
-0.25586373 0.08077395 0.60807651
-0.25115353 0.072656453 0.60764921
-0.24637198 0.064596176 0.60718155
-0.24159044 0.056535721 0.60671389
-0.23451048 0.051385164 0.60427713
-0.22747612 0.046135604 0.60186732
-0.22265905 0.038027108 0.60139436
-0.21492368 0.03345263 0.59845591
-0.21008688 0.025310338 0.59797019
-0.20293045 0.01990205 0.59555179
-0.19807214 0.011737525 0.59507263
-0.19028187 0.006927669 0.59214592
-0.18237519 0.0021205544 0.58918184
-0.17509252 -0.0034657121 0.58673483
-0.17016917 -0.011718452 0.58624589
-0.16222519 -0.016736746 0.58329624
-0.15728408 -0.025013685 0.58280462
-0.14988863 -0.030753016 0.58034074
-0.14747024 -0.04162848 0.58186138
-0.1426025 -0.049966633 0.58140087
-0.13515264 -0.055779815 0.57892883
-0.1270324 -0.061030447 0.57596231
-0.12791657 -0.074918509 0.58000612
-0.12297738 -0.083199561 0.57950503
-0.10893506 -0.083131135 0.57200885
-0.10724592 -0.094482243 0.57404238
-0.098995388 -0.099916697 0.57104683
-0.090771198 -0.10546911 0.56808484
-0.085743189 -0.11386395 0.56758022
-0.084125221 -0.12512547 0.56961471
-0.082551539 -0.13632673 0.57165587
-0.29216015 0.1487329 0.70923495
-0.28627908 0.14075565 0.70835358
-0.13747591 0.0081332922 0.69481927
-0.093942344 -0.036174893 0.69676006
-0.08787626 -0.044403255 0.69585097
-0.081810176 -0.052631617 0.69494182
-0.072233498 -0.057872534 0.69208908
-0.058371186 -0.059626639 0.68689388
-0.05223304 -0.067952812 0.68597394
-0.04251641 -0.073382795 0.68310118
-0.039957285 -0.084604383 0.68413424
-0.049074173 -0.10121781 0.65691793
-0.13143528 -6.0558319e-05 0.693914
-0.12205309 -0.0050637126 0.69105369
-0.042958498 -0.10951352 0.65600145
-0.37914354 0.072161794 0.59576154
-0.38157266 0.08288753 0.59401059
-0.3747161 0.064735711 0.59531724
-0.37384707 0.051693499 0.59870666
-0.36951685 0.044252336 0.59831625
-0.36511302 0.03685838 0.59787548
-0.36282581 0.026324987 0.59964776
-0.3584398 0.018955112 0.59920967
-0.34001309 -0.048721611 0.60836482
-0.32137322 -0.037271917 0.59366
-0.3180421 -0.035740495 0.60146224
-0.31919187 -0.047507584 0.59541845
-0.32267439 -0.064775288 0.60271084
-0.31671703 -0.069998085 0.60066235
-0.31409997 -0.079393923 0.60190362
-0.29950726 -0.074328005 0.59155774
-0.26890469 -0.12623006 0.58861417
-0.27563155 -0.12138754 0.59123957
-0.26450008 -0.13361824 0.58818293
-0.26017022 -0.14106607 0.58778292
-0.26063377 -0.15340954 0.59178388
-0.25385189 -0.15832669 0.58915019
-0.24076974 -0.18048042 0.58788657
-0.23834115 -0.16652364 0.58221614
-0.11363292 0.0035426021 0.70795047
-0.1184783 0.011844873 0.70839995
-0.12340105 0.020098031 0.70889074
-0.13084388 0.025609136 0.71094805
-0.144741 0.024008989 0.71703124
-0.14950949 0.032207131 0.71746922
-0.1543498 0.040347755 0.71794665
-0.16233104 0.044893384 0.72040975
-0.16714776 0.053002059 0.72088373
-0.171893 0.061167777 0.72131705
-0.17918354 0.066316724 0.72337949
-0.23894608 -0.19023108 0.58969861
-0.23457682 -0.1975711 0.58927262
-0.2302835 -0.20496923 0.5888781
-0.22591817 -0.21231103 0.58844304
-0.22154891 -0.21965098 0.58801711
-0.217255 -0.22704995 0.58762246
-0.21288598 -0.23439002 0.58719653
-0.20590734 -0.23957407 0.58453345
-0.2015956 -0.24699706 0.58413613
-0.19985747 -0.25647074 0.58594096
-0.19549209 -0.2638126 0.58550596
-0.19119811 -0.27121145 0.58511126
-0.11598879 -0.01328963 0.69014484
-0.033819079 -0.092930496 0.68321437
-0.024638772 -0.076246321 0.71064246
-0.022144377 -0.087457299 0.71157598
-0.28810191 0.16945529 0.75805509
-0.29395938 0.17740071 0.75893289
-0.033565283 -0.093947113 0.69459414
-0.18152624 0.077385068 0.72226495
-0.19122058 0.079477787 0.72590327
-0.1959303 0.087595463 0.72633141
-0.20071161 0.095655978 0.72680008
-0.20852852 0.099823475 0.72926623
-0.21565431 0.10474753 0.73130202
-0.22032309 0.112809 0.73172295
-0.22506326 0.12081313 0.73218453
-0.23211813 0.12564111 0.73420966
-0.23976445 0.12957567 0.73664826
-0.24446332 0.13752377 0.73710358
-0.24916804 0.14547992 0.7375598
-0.074396789 -0.028476298 0.75454104
-0.076933742 -0.017128944 0.75372511
-0.036065698 -0.082779944 0.69358814
-0.038610637 -0.071551681 0.6925897
-0.048341453 -0.066128373 0.69542783
-0.21021819 -0.035170138 0.58128881
-0.20956624 -0.021103859 0.57708657
-0.21724212 -0.016380727 0.58009273
-0.22673476 -0.013848126 0.58470887
-0.23145711 -0.0058679581 0.58516771
-0.23385364 0.0049162507 0.58355677
-0.24083072 0.010149539 0.58604497
-0.2455591 0.018137634 0.58650476
-0.24800289 0.028986037 0.58490086
-0.25500393 0.034098089 0.58742231
-0.25972646 0.042078257 0.58788121
-0.32764643 0.13533342 0.60039151
-0.33437616 0.13992321 0.60290217
-0.3209548 0.13064802 0.59792608
-0.31415039 0.12596375 0.59541392
-0.30682009 0.12201035 0.59239048
-0.30216902 0.11397314 0.59197211
-0.30221868 0.098935723 0.59611374
-0.29542434 0.09410429 0.59362316
-0.29071963 0.086148202 0.59316707
-0.28602087 0.078200042 0.59271175
-0.27855074 0.074064255 0.58967692
-0.25611132 0.15015519 0.73956627
-0.26309061 0.15472519 0.74160779
-0.26775402 0.16262507 0.74205768
-0.27460897 0.16718006 0.74404991
-0.28664798 0.17864525 0.74689519
-0.43038076 -0.11037856 0.59606707
-0.43535751 -0.10362786 0.5968129
-0.44191104 -0.098962009 0.59924728
-0.28201967 0.17079353 0.74645138
-0.12981308 0.011725724 0.71343482
-0.13585967 0.019927621 0.71434098
-0.46531713 -0.077077508 0.60613072
-0.47226346 -0.07329607 0.60909522
-0.14583331 0.024125695 0.7174924
-0.15510839 0.028930783 0.72026223
-0.16110176 0.037060618 0.72116041
-0.48851758 -0.041383207 0.60815543
-0.082999825 -0.0089005828 0.7546342
-0.092527628 -0.0038826466 0.75725824
-0.098568261 0.0043112636 0.75816357
-0.10328919 0.022116363 0.78982329
-0.058387637 -0.0028010607 0.80253458
-0.053648353 -0.0094231963 0.79165673
-0.049921572 -0.0077171326 0.80040485
-0.062027931 -0.0044429302 0.79378247
-0.04878056 -0.01776129 0.79119611
-0.04505384 -0.016055286 0.79994434
-0.041036487 -0.023474336 0.7893855
-0.040110886 -0.024334431 0.79945236
-0.03607583 -0.031777561 0.78889102
-0.035239398 -0.032670856 0.79900098
-0.031185985 -0.040138781 0.78843683
-0.030367851 -0.041007161 0.79854953
-0.019012094 -0.042150795 0.78459382
-0.010313153 -0.048849344 0.79297209
-0.0090761185 -0.058938086 0.78362262
-0.0053789616 -0.057270646 0.79251122
-0.014081717 -0.050573945 0.7841239
-0.0005043745 -0.064333022 0.78149778
-0.00037717819 -0.065636635 0.79200083
0.0045199394 -0.072729409 0.78098404
-0.10992038 -0.021521211 0.68923539
-0.1038543 -0.029749572 0.6883263
-0.097788215 -0.037977874 0.68741721
-0.27661735 0.062295854 0.59180021
-0.27191842 0.054347694 0.59134495
-0.26444894 0.050058484 0.58834004
-0.17030561 0.041769683 0.72392058
-0.17627537 0.049867332 0.72481525
-0.18224508 0.057964981 0.72570992
-0.18822074 0.066070676 0.72660542
-0.19419044 0.074168324 0.72750008
-0.01805675 -0.086676538 0.73226941
-0.20325863 0.078692853 0.73023891
-0.020499825 -0.075482547 0.7314027
-0.20921063 0.086766481 0.73113096
-0.026638031 -0.067156374 0.73232257
-0.352754 -0.19860059 0.58877283
-0.036403358 -0.061790228 0.73501897
-0.046844602 -0.05708307 0.73806369
-0.056515932 -0.051844537 0.74074596
-0.37513447 -0.17389709 0.59403098
-0.38012898 -0.1671223 0.59477949
-0.38512343 -0.16034752 0.59552801
-0.39011794 -0.15357274 0.59627652
-0.3951124 -0.14679796 0.59702504
-0.40234768 -0.142645 0.60000378
-0.40509546 -0.13325644 0.59852111
-0.41008991 -0.12648165 0.59926963
-0.41891921 -0.12441087 0.60391051
-0.42225468 -0.11564207 0.60298717
-0.42722553 -0.10889935 0.60373211
-0.43593878 -0.10697913 0.60836524
-0.44088006 -0.10027653 0.60910583
-0.44739759 -0.095680118 0.61150581
-0.45441431 -0.091823757 0.61445183
-0.4572624 -0.082298934 0.61298418
-0.4606629 -0.073441982 0.61207056
-0.46712726 -0.068917692 0.61446261
-0.47055137 -0.060028732 0.61355251
-0.47897887 -0.058503091 0.61813319
-0.48343366 -0.036899984 0.61357903
-0.48191565 -0.048857987 0.61667889
-0.48028594 -0.035424292 0.62122589
-0.21792066 0.12611741 0.77134645
-0.10461485 0.012513161 0.75906974
-0.21951157 0.11450768 0.75213027
-0.091722131 -0.046206236 0.68650812
-0.082182109 -0.051423311 0.68362415
-0.076093554 -0.059682131 0.68271166
-0.06258136 -0.043616951 0.74165493
-0.068647444 -0.035388589 0.74256408
-0.078228354 -0.030272603 0.74523282
-0.084271967 -0.022074699 0.74613857
-0.086845696 -0.010703564 0.74529135
-0.092914104 -0.0024719834 0.7462008
-0.10239983 0.0025149584 0.74885535
-0.26949745 0.11883122 0.69465655
-0.26070172 0.1145457 0.69177401
-0.23996657 0.094064951 0.68710208
-0.28790766 -0.26656353 0.58257723
-0.29296535 -0.25970298 0.58333516
-0.043246686 -0.10855412 0.64447981
-0.099850893 -0.048593462 0.65640438
-0.089644611 -0.053263009 0.65299767
-0.31319392 -0.23226392 0.58636677
-0.31825101 -0.22540414 0.58712465
-0.32517326 -0.22027254 0.58956593
-0.32836586 -0.21168381 0.58864051
-0.33526087 -0.2065891 0.59107774
-0.34030437 -0.1997478 0.59183359
-0.34353727 -0.19110453 0.59091419
-0.35279137 -0.18849176 0.59557039
-0.35960072 -0.18351322 0.5979948
-0.36461294 -0.17671442 0.59874594
-0.37197179 -0.17241442 0.60171425
-0.3769663 -0.16563964 0.60246277
-0.38196075 -0.15886486 0.60321128
-0.38695526 -0.15209007 0.6039598
-0.3942157 -0.1479165 0.60692298
-0.4031347 -0.14575827 0.61152899
-0.40584165 -0.13640457 0.61006922
-0.41080654 -0.12966985 0.61081326
-0.41797036 -0.12563443 0.61375237
-0.41909945 -0.11416286 0.61065221
-0.4240703 -0.10742015 0.61139715
-0.43066031 -0.10273916 0.61378872
-0.43561935 -0.096012414 0.61453187
-0.43900055 -0.087167978 0.61363471
-0.44554329 -0.082551062 0.61601913
-0.44895399 -0.073666513 0.61512637
-0.45187753 -0.064025998 0.61368942
-0.45890749 -0.060165107 0.6166181
-0.4618665 -0.050476432 0.61518645
-0.47383773 -0.039912879 0.6188556
-0.46886098 -0.046663582 0.61810976
-0.22386676 0.13418305 0.77223766
-0.23581046 0.134624 0.77649331
-0.24468708 0.13878536 0.7790575
-0.25056809 0.14676273 0.77993894
-0.39482445 0.050432742 0.60166413
-0.38901204 0.045553923 0.59959793
-0.3748405 0.039587617 0.59270781
-0.37608123 0.023605525 0.59835696
-0.36817372 0.021713853 0.59407187
-0.36381131 0.014375985 0.59363729
-0.34057343 -0.059553206 0.6019637
-0.34319407 -0.050158978 0.60071325
-0.33636725 -0.066826046 0.60159189
-0.33209354 -0.074043632 0.60117054
-0.32782197 -0.081251383 0.60075927
-0.32183605 -0.086372435 0.59865737
-0.31927663 -0.095676601 0.59992659
-0.31500286 -0.10289413 0.59950531
-0.28669441 -0.10924983 0.59428596
-0.2938931 -0.12725639 0.59396839
-0.28413051 -0.11857355 0.59553516
-0.29819638 -0.11999881 0.59439409
-0.29197216 -0.13711149 0.59580445
-0.28768712 -0.14434421 0.5953815
-0.28339899 -0.15157443 0.59496766
-0.27674484 -0.15633875 0.59232414
-0.26998389 -0.16109425 0.58963495
-0.27061224 -0.17332727 0.59374827
-0.097272158 0.01395452 0.78892154
