# .PCD v0.7 - Point Cloud Data file format
VERSION 0.7
FIELDS x y z
SIZE 4 4 4
TYPE F F F
COUNT 1 1 1
WIDTH 1471
HEIGHT 1
VIEWPOINT 0 0 0 1 0 0 0
POINTS 1471
DATA ascii
1.2606072 -0.41074654 0.45944577
1.2585597 -0.42053926 0.45877913
1.251719 -0.42873847 0.45637318
1.2544647 -0.44012469 0.4574458
1.2524172 -0.44991741 0.45677915
1.2503698 -0.45971012 0.4561125
1.2483222 -0.46950287 0.45544583
1.2510291 -0.48107517 0.45650575
1.2394806 -0.48727155 0.45238844
1.2421798 -0.49888101 0.45344588
1.2401322 -0.50867373 0.4527792
1.242808 -0.52039486 0.45382902
1.2360373 -0.52825916 0.45144591
1.2339897 -0.5380519 0.45077923
1.2366421 -0.54988468 0.45182145
1.2345868 -0.55971456 0.45115224
1.2325315 -0.56954449 0.45048305
1.2304763 -0.57937443 0.44981387
1.2190834 -0.58482665 0.4457472
1.2170438 -0.59458214 0.44508308
1.2196572 -0.60660088 0.44611266
1.2129643 -0.61409318 0.44375485
1.2109245 -0.62384868 0.44309071
1.2135147 -0.63597906 0.44411269
1.206845 -0.64335966 0.44176248
1.2094197 -0.65556449 0.44277936
1.2027656 -0.66287076 0.44043422
1.2053246 -0.67514992 0.44144607
1.2032772 -0.68494266 0.44077939
1.1966465 -0.69213724 0.43844184
1.1900313 -0.69925749 0.43610936
1.1834317 -0.7063033 0.43378201
1.1950872 -0.72411352 0.43811277
1.1884875 -0.73115933 0.43578535
1.1864479 -0.74091482 0.43512124
1.1844081 -0.75067031 0.43445712
1.1823684 -0.76042587 0.43379298
1.1803287 -0.77018136 0.43312886
1.1782889 -0.77993691 0.43246475
1.1762493 -0.7896924 0.43180063
1.1787071 -0.80245531 0.43277952
1.1766597 -0.81224799 0.43211287
1.17013 -0.818959 0.42980826
1.1591418 -0.82247651 0.42587334
1.1571176 -0.83215755 0.42521426
1.1550934 -0.84183866 0.42455521
1.1575202 -0.85475034 0.42552394
1.1554883 -0.86446875 0.42486233
1.1578918 -0.87749207 0.42582351
1.1514244 -0.88390523 0.42353916
1.1538123 -0.89700305 0.42449525
1.1517726 -0.90675855 0.42383114
1.1497328 -0.91651404 0.42316702
1.1476932 -0.92626953 0.42250291
1.1456534 -0.93602502 0.42183879
1.1436137 -0.94578063 0.42117465
1.1503203 -0.96274155 0.4237155
1.4573067 0.45695844 0.51389515
1.4607216 0.44877446 0.51514757
1.4652164 0.44085273 0.51677972
1.4685988 0.43251252 0.51802152
1.4665031 0.42248917 0.51733917
1.4644074 0.41246575 0.51665682
1.4677585 0.4039768 0.51788843
1.4721818 0.39571267 0.51949733
1.4700689 0.38560742 0.51880938
1.461448 0.37379497 0.51583374
1.4539287 0.36234874 0.51324499
1.451833 0.35232538 0.51256263
1.4497373 0.34230196 0.51188028
1.4357781 0.32947594 0.50702608
1.440161 0.32101849 0.50862181
1.4434501 0.31223178 0.50983322
1.4359851 0.30104604 0.50726211
1.4338971 0.29105988 0.50658232
1.4253851 0.27976823 0.50364214
1.4233065 0.26982665 0.50296539
1.4212278 0.25988519 0.50228858
1.4191493 0.24994363 0.50161177
1.4117483 0.23906295 0.49906155
1.414992 0.23006055 0.50025821
1.4129133 0.22011897 0.49958146
1.4108348 0.21017745 0.49890468
1.4087561 0.20023593 0.49822789
1.401394 0.18954132 0.49569029
1.3993232 0.179637 0.49501601
1.3972523 0.16973262 0.49434176
1.3951815 0.15982832 0.49366751
1.3931106 0.14992397 0.49299327
1.3910398 0.14001964 0.49231902
1.3889691 0.13011529 0.49164474
1.3868982 0.12021095 0.49097049
1.3848274 0.1103066 0.49029624
1.3827565 0.1004023 0.489622
1.3806857 0.090497948 0.48894772
1.3786148 0.080593593 0.48827347
1.376544 0.070689268 0.48759922
1.3796555 0.061054286 0.48875287
1.3775768 0.051112734 0.48807606
1.3703314 0.040976267 0.48557645
1.3682606 0.031071912 0.4849022
1.371341 0.021288089 0.48604572
1.3641189 0.011263232 0.48355368
1.362048 0.0013589067 0.48287943
1.3599772 -0.0085454481 0.48220518
1.3579065 -0.018449772 0.48153093
1.3558356 -0.028354097 0.48085669
1.3537648 -0.038258452 0.48018241
1.3516939 -0.048162807 0.47950816
1.3496231 -0.058067102 0.47883391
1.3475522 -0.067971461 0.47815964
1.3454814 -0.0778758 0.47748539
1.3434105 -0.08778014 0.47681114
1.3413397 -0.09768448 0.47613689
1.3392688 -0.10758882 0.47546265
1.337198 -0.11749316 0.47478837
1.3351271 -0.12739748 0.47411412
1.3330563 -0.13730183 0.47343987
1.3309854 -0.14720616 0.47276562
1.3289146 -0.1571105 0.47209135
1.3268439 -0.16701484 0.4714171
1.324773 -0.17691918 0.47074285
1.3227022 -0.18682352 0.4700686
1.3206313 -0.19672786 0.46939433
1.3185605 -0.20663218 0.46872008
1.3115251 -0.21576408 0.46628883
1.3144188 -0.22644086 0.46737158
1.3073989 -0.23549834 0.46494538
1.3102771 -0.24624954 0.46602306
1.3082062 -0.25615388 0.46534881
1.3061354 -0.26605821 0.46467456
1.3040645 -0.27596256 0.46400031
1.2921736 -0.28380114 0.45984757
1.2901183 -0.29363108 0.45917836
1.288063 -0.30346099 0.45850918
1.2860078 -0.31329092 0.45784
1.2839525 -0.32312083 0.45717081
1.2818972 -0.33295077 0.4565016
1.2798419 -0.34278068 0.45583242
1.2777866 -0.35261062 0.45516324
1.2757313 -0.36244053 0.45449406
1.273676 -0.37227046 0.45382485
1.2716208 -0.38210037 0.45315567
1.2695655 -0.39193031 0.45248649
1.2675102 -0.40176025 0.4518173
1.2606459 -0.41007358 0.44944176
1.2585983 -0.41986629 0.44877511
1.2565509 -0.42965901 0.44810843
1.259289 -0.44107994 0.44914052
1.2572339 -0.45090985 0.44847134
1.2551786 -0.46073982 0.44780216
1.2531233 -0.4705697 0.44713297
1.251068 -0.48039964 0.44646379
1.2490127 -0.49022958 0.44579458
1.2422184 -0.49820805 0.44344184
1.2449021 -0.50988936 0.44445622
1.2428468 -0.5197193 0.44378701
1.2407916 -0.52954924 0.44311783
1.2387363 -0.53937918 0.44244865
1.236681 -0.54920912 0.44177946
1.2346257 -0.559039 0.44111025
1.2325704 -0.56886894 0.44044107
1.2305151 -0.57869887 0.43977189
1.2191219 -0.58415627 0.43578121
1.2217433 -0.59613526 0.4367753
1.2150425 -0.60366732 0.43445298
1.2130028 -0.61342281 0.43378887
1.2156008 -0.62551343 0.43477532
1.2135533 -0.63530612 0.43410867
1.2115058 -0.64509887 0.433442
1.2094584 -0.65489155 0.43277535
1.2074108 -0.6646843 0.4321087
1.2099624 -0.67699814 0.43307999
1.2033159 -0.68426973 0.43077537
1.196685 -0.69146687 0.42847586
1.1900697 -0.69858962 0.42618144
1.1880378 -0.70830792 0.42551985
1.1951258 -0.72344059 0.42810875
1.1930783 -0.73323333 0.4274421
1.1910307 -0.74302602 0.42677546
1.1889833 -0.75281876 0.42610881
1.1869358 -0.76261151 0.42544213
1.1848882 -0.77240419 0.42477548
1.1828408 -0.78219688 0.42410883
1.1807933 -0.79198968 0.42344216
1.1787457 -0.80178237 0.42277551
1.1722083 -0.80853307 0.42050639
1.1701685 -0.81828862 0.41984227
1.1681288 -0.82804412 0.41917816
1.1616225 -0.83464587 0.41691917
1.1595905 -0.84436417 0.41625759
1.1664608 -0.86053866 0.41877559
1.1644132 -0.87033141 0.41810891
1.1579303 -0.8768217 0.41585752
1.1558905 -0.88657719 0.41519341
1.1538508 -0.89633268 0.41452929
1.1518111 -0.90608817 0.41386515
1.1497713 -0.91584367 0.41320103
1.1521282 -0.9290877 0.41410899
1.1500808 -0.93888038 0.41344231
1.1480333 -0.94867313 0.41277567
1.1459857 -0.95846587 0.41210902
1.1483039 -0.97189587 0.41300431
1.4628395 0.45939922 0.50566834
1.4607608 0.44945765 0.50499153
1.4762123 0.44491047 0.51035035
1.4686383 0.43320134 0.50778192
1.4665426 0.42317799 0.50709951
1.4644469 0.41315457 0.50641716
1.4677982 0.40466815 0.5076108
1.4722216 0.3964071 0.50917405
1.4701087 0.38630185 0.50848615
1.4679959 0.37619653 0.50779819
1.4593842 0.36442566 0.50487125
1.4518725 0.3530142 0.50232303
1.4497768 0.34299079 0.50164068
1.4422884 0.33169085 0.4991
1.4402004 0.32170475 0.49842018
1.4381125 0.31171852 0.49774036
1.4295815 0.30033451 0.49483976
1.4339366 0.29174614 0.49638072
1.4254243 0.28045142 0.4934862
1.4233457 0.27050984 0.49280939
1.421267 0.26056838 0.4921326
1.4191885 0.2506268 0.49145582
1.4171098 0.24068524 0.49077904
1.4150312 0.23074374 0.49010223
1.4129525 0.22080216 0.48942545
1.410874 0.21086064 0.48874867
1.4087954 0.20091912 0.48807189
1.4014331 0.19022195 0.48557228
1.4046382 0.18103597 0.4867183
1.3972914 0.17041324 0.48422375
1.4004809 0.1611529 0.48536474
1.3984022 0.15121138 0.48468795
1.3910789 0.14070027 0.48220101
1.394245 0.13132828 0.48333436
1.3921664 0.12138673 0.48265758
1.3900877 0.11144515 0.4819808
1.3827956 0.10108294 0.47950399
1.3807248 0.091178581 0.47882971
1.3838519 0.081620537 0.47995043
1.3765831 0.071369901 0.47748122
1.3796947 0.061737474 0.47859684
1.377616 0.051795926 0.47792006
1.3755375 0.041854404 0.47724327
1.3734589 0.031912826 0.47656649
1.3713802 0.021971278 0.47588971
1.364158 0.011943863 0.47343567
1.3620871 0.0020395378 0.47276142
1.3600163 -0.007864817 0.47208717
1.3579456 -0.017769143 0.47141293
1.3609871 -0.027736403 0.47250578
1.3589085 -0.037677981 0.47182897
1.3568299 -0.047619499 0.47115219
1.3496622 -0.057386469 0.46871591
1.3526726 -0.067502625 0.46979859
1.3455205 -0.077195168 0.46736738
1.3434496 -0.087099507 0.46669313
1.3413788 -0.097003847 0.46601889
1.3393079 -0.10690819 0.46534464
1.3372371 -0.11681253 0.46467036
1.3402009 -0.12715186 0.46573788
1.3330954 -0.13662121 0.46332186
1.3310245 -0.14652553 0.46264762
1.3289537 -0.15642987 0.46197334
1.326883 -0.16633421 0.46129909
1.3248121 -0.17623855 0.46062484
1.3227413 -0.18614289 0.4599506
1.3206704 -0.19604723 0.45927632
1.3185996 -0.20595156 0.45860207
1.3165287 -0.2158559 0.45792782
1.3194147 -0.2265673 0.45897001
1.312387 -0.23566458 0.4565793
1.3103162 -0.24556892 0.45590505
1.3082453 -0.25547326 0.4552308
1.3061745 -0.26537758 0.45455655
1.3041036 -0.27528194 0.45388231
1.2971226 -0.28415594 0.45150679
1.2950596 -0.29402307 0.45083508
1.2881018 -0.30278546 0.44846717
1.2860465 -0.31261539 0.44779798
1.2839912 -0.3224453 0.4471288
1.2868073 -0.33349159 0.44814819
1.2798806 -0.34210515 0.44579041
1.2778254 -0.35193509 0.44512123
1.2757701 -0.361765 0.44445205
1.2737148 -0.37159494 0.44378284
1.2716595 -0.38142484 0.44311365
1.2696042 -0.39125478 0.44244447
1.2675489 -0.40108472 0.44177529
1.2654936 -0.41091463 0.44110608
1.2634383 -0.42074457 0.4404369
1.2613831 -0.43057448 0.43976772
1.2593278 -0.44040442 0.43909851
1.2572726 -0.45023432 0.43842933
1.2552173 -0.46006429 0.43776014
1.253162 -0.46989417 0.43709096
1.2558614 -0.48149857 0.43807235
1.2537984 -0.49136567 0.43740064
1.2469962 -0.49938399 0.43508339
1.2449409 -0.50921386 0.43441421
1.2428856 -0.5190438 0.433745
1.2408303 -0.52887374 0.43307582
1.2434831 -0.54070133 0.43404201
1.24142 -0.55056846 0.43337029
1.2393569 -0.56043559 0.43269858
1.2372938 -0.57030278 0.43202686
1.2352308 -0.58016986 0.43135515
1.2238296 -0.58566958 0.42743799
1.2264433 -0.59768325 0.42839149
1.2197345 -0.60525495 0.42610469
1.217687 -0.61504769 0.42543802
1.2202774 -0.62717301 0.42638394
1.2182221 -0.63700289 0.42571473
1.216167 -0.64683282 0.42504555
1.2141117 -0.65666276 0.42437637
1.2074496 -0.6640113 0.42210475
1.205402 -0.67380399 0.4214381
1.2079458 -0.68615252 0.42236879
1.2013071 -0.69338948 0.42010477
1.1992595 -0.70318216 0.41943812
1.1972121 -0.71297485 0.41877148
1.1951646 -0.72276759 0.4181048
1.193117 -0.73256034 0.41743815
1.1910695 -0.74235302 0.4167715
1.1890221 -0.75214577 0.41610482
1.1915035 -0.76479191 0.41701528
1.1894482 -0.77462184 0.4163461
1.1828796 -0.78152388 0.41410488
1.180832 -0.79131669 0.4134382
1.1787845 -0.80110937 0.41277155
1.1767371 -0.81090206 0.4121049
1.1746895 -0.8206948 0.41143826
1.172642 -0.83048755 0.41077158
1.1705946 -0.84028023 0.41010493
1.168547 -0.85007292 0.40943828
1.1709508 -0.86309117 0.41032341
1.164452 -0.86965841 0.40810496
1.1579688 -0.87615126 0.40589157
1.155929 -0.88590676 0.40522745
1.1538893 -0.89566225 0.40456334
1.156262 -0.90882927 0.40543833
1.1542145 -0.91862202 0.40477169
1.1477702 -0.92492872 0.40257096
1.1501195 -0.93820739 0.40343836
1.148072 -0.94800013 0.40277171
1.1503979 -0.9613905 0.40363151
1.1527084 -0.97485512 0.40448627
1.4694711 0.4621976 0.49773613
1.4783555 0.45566249 0.50075763
1.4828258 0.44762778 0.50229049
1.4741484 0.43554127 0.49938786
1.4665822 0.42386678 0.49685994
1.4699414 0.41542 0.49801806
1.4743743 0.40720677 0.49953878
1.4722614 0.39710152 0.49885082
1.4701486 0.38699627 0.4981629
1.4680357 0.37689096 0.49747497
1.465923 0.36678582 0.49678704
1.4573203 0.35505646 0.4939087
1.4552168 0.34499586 0.49322382
1.4477205 0.33365622 0.49071869
1.4402398 0.32239097 0.48821855
1.4435291 0.31360939 0.48935398
1.4414334 0.30358598 0.48867163
1.4339759 0.29243237 0.48617908
1.431888 0.28244615 0.48549923
1.4297999 0.27246004 0.48481941
1.4213063 0.26125157 0.48197657
1.4192277 0.25130999 0.48129979
1.4171491 0.24136843 0.48062301
1.4150704 0.23142692 0.4799462
1.4129918 0.22148535 0.47926942
1.4109132 0.21154383 0.47859263
1.4088346 0.20160231 0.47791585
1.4067559 0.19166067 0.47723904
1.4046774 0.18171915 0.47656226
1.4025987 0.17177767 0.47588548
1.4005201 0.16183609 0.4752087
1.3984414 0.15189457 0.47453192
1.4026566 0.14263955 0.47598165
1.3942842 0.13201147 0.47317833
1.3922056 0.12206992 0.47250155
1.3901269 0.11212834 0.47182477
1.3880484 0.10218685 0.47114795
1.3859698 0.092245303 0.47047117
1.3838911 0.082303725 0.46979439
1.3818126 0.072362207 0.46911761
1.3859529 0.062749974 0.47054306
1.383865 0.052763846 0.46986321
1.381777 0.042777624 0.46918339
1.3734981 0.032596014 0.46641046
1.3776011 0.02280524 0.46782374
1.3755132 0.012819047 0.46714392
1.3672622 0.002771399 0.46438009
1.3600554 -0.007184186 0.46196914
1.3631049 -0.017111696 0.46302652
1.3610263 -0.027053215 0.46234974
1.3589478 -0.036994793 0.46167293
1.3568691 -0.046936311 0.46099615
1.3608974 -0.057084296 0.46238512
1.3527118 -0.066819437 0.45964256
1.3506333 -0.07676097 0.45896578
1.3485546 -0.086702488 0.458289
1.3414179 -0.096323214 0.45590085
1.3443974 -0.10658558 0.45693544
1.3423188 -0.11652713 0.45625862
1.3402401 -0.12646867 0.45558184
1.3381615 -0.13641021 0.45490506
1.3310636 -0.14584489 0.45252958
1.3340043 -0.1562933 0.4535515
1.3319256 -0.16623485 0.45287469
1.3298471 -0.1761764 0.45219791
1.3277684 -0.18611795 0.45152113
1.3256898 -0.1960595 0.45084435
1.3295782 -0.20687716 0.45218772
1.3215326 -0.21594256 0.44949076
1.319454 -0.22588411 0.44881397
1.3173753 -0.23582566 0.44813719
1.3152966 -0.24576721 0.44746038
1.3082844 -0.2547926 0.44511276
1.3062136 -0.26469696 0.44443852
1.3090608 -0.27559185 0.44543004
1.2971615 -0.28347787 0.44142678
1.2950984 -0.293345 0.44075507
1.2881405 -0.30210996 0.43842518
1.2860852 -0.3119399 0.437756
1.2889093 -0.3229464 0.4387399
1.2819747 -0.33159974 0.43641761
1.2799194 -0.34142965 0.43574843
1.2827201 -0.35254779 0.43672472
1.2806571 -0.36241493 0.43605301
1.2737535 -0.37091944 0.43374085
1.2765309 -0.38214919 0.43470958
1.2744678 -0.39201629 0.43403783
1.2675877 -0.40040922 0.43173331
1.2703418 -0.41175056 0.43269441
1.2682786 -0.42161772 0.43202266
1.2614218 -0.42989898 0.42972574
1.2593665 -0.43972892 0.42905656
1.2573113 -0.44955882 0.42838734
1.2552561 -0.45938879 0.42771816
1.2532008 -0.46921867 0.42704898
1.2559003 -0.48082051 0.42799234
1.2538372 -0.49068761 0.42732063
1.2517742 -0.50055474 0.42664889
1.2497112 -0.51042187 0.42597717
1.2429243 -0.5183683 0.42370304
1.245585 -0.53015614 0.42463374
1.2435219 -0.54002327 0.42396203
1.2414589 -0.5498904 0.42329028
1.2393957 -0.55975753 0.42261857
1.2373327 -0.56962472 0.42194685
1.2352697 -0.57949179 0.42127511
1.2285373 -0.58717775 0.41901872
1.226482 -0.59700775 0.4183495
1.2244267 -0.60683763 0.41768032
1.2223715 -0.61666757 0.41701114
1.2203162 -0.62649751 0.41634193
1.2182609 -0.63632739 0.41567275
1.2162057 -0.64615732 0.41500357
1.2141504 -0.65598726 0.41433439
1.2074882 -0.66333836 0.41210076
1.2100399 -0.67564714 0.41299599
1.2079846 -0.68547702 0.41232681
1.2059293 -0.69530696 0.41165763
1.203874 -0.7051369 0.41098842
1.2018187 -0.71496677 0.41031924
1.1952032 -0.72209466 0.40810081
1.1931556 -0.7318874 0.40743417
1.1956528 -0.74445659 0.40831169
1.1935976 -0.75428653 0.40764248
1.1915423 -0.76411641 0.4069733
1.189487 -0.77394634 0.40630412
1.1874317 -0.78377628 0.40563491
1.1808707 -0.79064375 0.40343422
1.1788231 -0.80043644 0.40276757
1.1812658 -0.81326604 0.40362737
1.1792105 -0.82309604 0.40295818
1.1726806 -0.82981461 0.40076759
1.1706332 -0.8396073 0.40010095
1.1730448 -0.85258579 0.40095058
1.1709895 -0.86241567 0.4002814
1.1644906 -0.86898547 0.39810097
1.1624432 -0.87877816 0.39743432
1.1603956 -0.8885709 0.39676768
1.1583481 -0.89836359 0.39610103
1.1518881 -0.90474737 0.39393324
1.1498483 -0.91450286 0.39326912
1.1522056 -0.92774177 0.39410105
1.1501582 -0.93753445 0.39343438
1.1524919 -0.950885 0.39425871
1.1548103 -0.96430999 0.39507797
1.1527473 -0.97417706 0.39440623
1.1550423 -0.98771358 0.39521793
1.1529714 -0.99761796 0.39454365
1.4783952 0.45635387 0.49047998
1.4828657 0.44832224 0.49196723
1.4807528 0.43821698 0.4912793
1.47864 0.42811173 0.49059138
1.4765271 0.41800648 0.48990345
1.4744142 0.40790123 0.48921552
1.4777409 0.39930081 0.49032503
1.4756203 0.38915831 0.48963457
1.4680756 0.37758541 0.48715171
1.4594636 0.3658084 0.48431593
1.4519516 0.35439181 0.48184374
1.4617372 0.34726971 0.4850879
1.453153 0.33562657 0.48226127
1.4456644 0.32432157 0.47979668
1.448946 0.31550536 0.48089147
1.441473 0.3042748 0.47843197
1.4393772 0.29425144 0.47774959
1.4255028 0.28181779 0.47317412
1.4298394 0.2731463 0.47461775
1.4277515 0.26316008 0.47393793
1.4192669 0.25199318 0.47114375
1.4235755 0.24318771 0.47257826
1.4214876 0.2332015 0.47189844
1.413031 0.22216853 0.46911338
1.4109524 0.21222702 0.4684366
1.4088738 0.2022855 0.46775982
1.4131358 0.1932568 0.46917912
1.4047166 0.18240234 0.46640623
1.4089599 0.17328435 0.46781948
1.4068719 0.16329819 0.46713966
1.3984807 0.15257776 0.46437588
1.402696 0.14332581 0.46577999
1.4058455 0.13387705 0.46683183
1.3985201 0.12335338 0.46442035
1.3964322 0.11336722 0.46374053
1.3943442 0.10338103 0.46306068
1.3922563 0.093394838 0.46238086
1.3839303 0.082986914 0.45963836
1.3880804 0.073422424 0.46102121
1.3911753 0.06371326 0.46205533
1.3890796 0.053689878 0.46137294
1.3869839 0.043666467 0.46069059
1.3797286 0.03347769 0.4583019
1.3827924 0.023619696 0.45932588
1.3806967 0.013596251 0.45864353
1.3734647 0.0035190815 0.45626241
1.3652228 -0.0064869607 0.45354727
1.3631442 -0.016428508 0.45287049
1.3610655 -0.026370026 0.45219371
1.3651128 -0.036425658 0.4535431
1.3630248 -0.046411846 0.45286328
1.3609369 -0.056398038 0.45218346
1.352751 -0.066136248 0.44948652
1.356761 -0.076370426 0.45082381
1.3597393 -0.086637728 0.4518199
1.3525851 -0.096342809 0.44946414
1.3444366 -0.1059024 0.4467794
1.3484092 -0.11631518 0.4481045
1.3513564 -0.12673132 0.44909048
1.3442333 -0.13628756 0.44674483
1.3421453 -0.14627375 0.44606501
1.3400574 -0.15625994 0.44538519
1.3379694 -0.16624613 0.44470537
1.3298863 -0.17549321 0.44204187
1.3278077 -0.18543476 0.44136509
1.3317056 -0.19620472 0.44266587
1.3345906 -0.20691851 0.44363159
1.3275297 -0.21617709 0.44130623
1.3254417 -0.22616328 0.44062638
1.3174145 -0.23514247 0.43798116
1.3153359 -0.24508402 0.43730435
1.3132573 -0.25502557 0.43662757
1.3111787 -0.26496711 0.43595079
1.3091 -0.27490866 0.435274
1.302111 -0.28382501 0.43297198
1.2951374 -0.29266691 0.43067506
1.2930744 -0.30253404 0.43000332
1.2910113 -0.31240118 0.4293316
1.2889483 -0.32226831 0.42865989
1.2868851 -0.33213544 0.42798817
1.2848221 -0.34200257 0.42731643
1.2827591 -0.3518697 0.42664471
1.280696 -0.36173683 0.425973
1.2786329 -0.37160397 0.42530128
1.2765698 -0.3814711 0.42462954
1.2745068 -0.3913382 0.42395782
1.2676265 -0.39973369 0.4216913
1.2703807 -0.41107246 0.4226144
1.2683176 -0.42093962 0.42194268
1.2662545 -0.43080673 0.42127094
1.2641915 -0.44067386 0.42059922
1.2621285 -0.45054099 0.41992751
1.2600654 -0.46040815 0.41925576
1.2580023 -0.47027525 0.41858405
1.2559392 -0.48014241 0.41791233
1.2538762 -0.49000952 0.41724062
1.2518132 -0.49987665 0.41656891
1.2544817 -0.51162475 0.41746414
1.2524109 -0.52152914 0.41678986
1.2456239 -0.52947807 0.41455373
1.2435609 -0.5393452 0.41388199
1.2414979 -0.54921234 0.41321027
1.2394347 -0.55907947 0.41253856
1.2373717 -0.56894666 0.41186684
1.2353086 -0.57881373 0.41119513
1.2285762 -0.58650225 0.4089767
1.2265209 -0.59633225 0.40830749
1.2291194 -0.60841513 0.40917996
1.2317024 -0.62057251 0.41004732
1.2249933 -0.62814939 0.4078365
1.2182997 -0.63565189 0.40563074
1.2162446 -0.64548182 0.40496156
1.2141893 -0.65531176 0.40429237
1.212134 -0.6651417 0.40362319
1.214678 -0.67748505 0.40447789
1.212615 -0.68735218 0.40380618
1.210552 -0.69721931 0.40313444
1.2039129 -0.7044614 0.40094641
1.2018576 -0.71429127 0.40027723
1.1998023 -0.72412127 0.39960805
1.197747 -0.73395115 0.39893886
1.2002367 -0.74655497 0.39977583
1.1981735 -0.7564221 0.39910412
1.1915811 -0.76344091 0.39693129
1.1850042 -0.77038527 0.39476356
1.1874706 -0.78310078 0.3955929
1.1854153 -0.79293066 0.39492372
1.18336 -0.80276066 0.39425454
1.1768143 -0.80955613 0.39209694
1.1792494 -0.82242054 0.39291617
1.1771941 -0.83225042 0.39224696
1.1751388 -0.84208035 0.39157778
1.1730837 -0.85191029 0.39090857
1.1710284 -0.86174017 0.39023939
1.1689731 -0.87157011 0.38957021
1.1669178 -0.88140005 0.38890103
1.1604342 -0.88789791 0.38676369
1.1583867 -0.89769059 0.38609704
1.1519266 -0.90407693 0.38396725
1.1498868 -0.91383243 0.38330314
1.1522442 -0.92706877 0.38409707
1.1501968 -0.93686146 0.38343039
1.1525308 -0.9502095 0.3842167
1.1548493 -0.96363193 0.38499796
1.1527863 -0.973499 0.38432625
1.1550814 -0.98703295 0.38509992
1.1530105 -0.99693733 0.38442564
1.4850183 0.45912191 0.4823319
1.4829055 0.44901666 0.48164397
1.4807926 0.43891141 0.48095605
1.4786798 0.42880616 0.48026812
1.4820223 0.42028269 0.48134467
1.4799016 0.41014025 0.48065421
1.4723412 0.3984904 0.47820431
1.4756603 0.3898553 0.47927329
1.4735397 0.37971285 0.47858283
1.4660027 0.3681747 0.47614053
1.4638898 0.35806939 0.4754526
1.461777 0.34796414 0.47476467
1.4531927 0.33631796 0.47198364
1.4510891 0.32625741 0.47129875
1.4489857 0.31619674 0.47061384
1.4415125 0.30496362 0.46819231
1.4394166 0.29494026 0.46750996
1.4373209 0.28491685 0.4668276
1.4405717 0.27595437 0.46787429
1.4331294 0.26487002 0.46546289
1.4310337 0.25484666 0.46478054
1.428938 0.24482326 0.46409816
1.4268422 0.23479985 0.4634158
1.419439 0.22390154 0.46101701
1.4109917 0.21291021 0.45828056
1.4152631 0.20392916 0.45965737
1.4184593 0.19470625 0.46068636
1.4163636 0.18468289 0.460004
1.4142679 0.17465951 0.45932165
1.4121721 0.16463606 0.45863929
1.4048233 0.15399826 0.45625821
1.4079807 0.14458926 0.45727456
1.4111224 0.13510588 0.45828578
1.4037892 0.12454245 0.45590985
1.4016935 0.11451907 0.45522749
1.3995978 0.10449567 0.45454511
1.3975019 0.094472259 0.45386276
1.3954062 0.084448874 0.4531804
1.3933105 0.074425489 0.45249805
1.3912147 0.064402074 0.45181569
1.3942944 0.054621037 0.45280662
1.3921908 0.044560459 0.45212173
1.3849276 0.034331892 0.4497686
1.3879838 0.024439212 0.45075196
1.3807361 0.014285062 0.44840387
1.373504 0.0042053359 0.44606081
1.3714161 -0.0057808263 0.44538099
1.3693281 -0.015767019 0.44470116
1.3672402 -0.025753211 0.44402134
1.3702575 -0.035831925 0.4449921
1.3630642 -0.045725595 0.44266167
1.366066 -0.055878695 0.44362736
1.3639703 -0.065902114 0.442945
1.3568003 -0.075684175 0.44062221
1.3597788 -0.085948914 0.44158027
1.3576831 -0.095972314 0.44089791
1.3555874 -0.10599571 0.44021556
1.3484485 -0.11562893 0.4379029
1.3513958 -0.12604252 0.43885085
1.3493001 -0.1360659 0.43816847
1.3421847 -0.14558749 0.43586341
1.3451086 -0.15611269 0.43680376
1.3430129 -0.16613609 0.4361214
1.3359208 -0.17554606 0.43382391
1.3338329 -0.18553227 0.43314409
1.3317449 -0.19551846 0.43246427
1.33463 -0.20622969 0.43339196
1.327569 -0.21549083 0.43110463
1.3254811 -0.22547702 0.43042478
1.3233931 -0.23546322 0.42974496
1.3213052 -0.24544941 0.42906514
1.3132966 -0.25434238 0.42647153
1.3112179 -0.26428393 0.42579475
1.3091393 -0.27422547 0.42511797
1.3070607 -0.28416702 0.42444119
1.3000792 -0.29304871 0.42217973
1.2931132 -0.30185598 0.41992334
1.2910502 -0.31172311 0.41925162
1.2889872 -0.32159024 0.41857991
1.286924 -0.33145738 0.41790819
1.2897249 -0.34257039 0.41880846
1.2876542 -0.35247475 0.41813421
1.2855833 -0.36237907 0.41745993
1.2835125 -0.3722834 0.41678569
1.2766087 -0.38079304 0.41454956
1.2745457 -0.39066014 0.41387784
1.2772999 -0.4019964 0.41476291
1.2704196 -0.4103944 0.41253442
1.2683564 -0.42026156 0.4118627
1.2662934 -0.43012866 0.41119096
1.2690166 -0.44161376 0.41206589
1.2669457 -0.45151812 0.41139165
1.2648749 -0.46142244 0.4107174
1.2580411 -0.46959719 0.40850407
1.2607332 -0.48123112 0.4093689
1.2586623 -0.49113545 0.40869462
1.2565916 -0.5010398 0.40802038
1.2545207 -0.51094413 0.40734613
1.2571738 -0.52276409 0.40819827
1.2456628 -0.52879995 0.40447375
1.2483082 -0.54065716 0.40532336
1.2462373 -0.55056155 0.40464911
1.2441665 -0.56046581 0.40397486
1.2374105 -0.56826854 0.40178686
1.2353475 -0.57813561 0.40111515
1.2332845 -0.58800274 0.4004434
1.2265596 -0.59565669 0.39826551
1.2245044 -0.60548657 0.39759633
1.2270952 -0.61760414 0.39842823
1.2250322 -0.62747127 0.39775652
1.2229692 -0.6373384 0.3970848
1.2209061 -0.64720553 0.39641309
1.218843 -0.65707266 0.39574137
1.2167799 -0.6669398 0.39506963
1.2193164 -0.67931795 0.3958838
1.2172456 -0.68922222 0.39520952
1.2105908 -0.69654119 0.39305446
1.2039516 -0.70378584 0.39090446
1.2064646 -0.71627545 0.39171103
1.2044016 -0.72614259 0.39103931
1.2023386 -0.73600972 0.3903676
1.2048205 -0.74864829 0.391164
1.2027497 -0.75855255 0.39048976
1.1916199 -0.76276535 0.38688931
1.1895646 -0.77259529 0.38622013
1.1875093 -0.78242522 0.38555095
1.185454 -0.7922551 0.38488173
1.1833987 -0.8020851 0.38421255
1.1768529 -0.80888319 0.38209295
1.1792881 -0.82174498 0.38287416
1.1772329 -0.83157486 0.38220498
1.1751776 -0.8414048 0.3815358
1.1731224 -0.85123473 0.38086662
1.1710671 -0.86106461 0.38019744
1.1690118 -0.87089455 0.37952822
1.1669565 -0.88072449 0.37885904
1.1649013 -0.89055443 0.37818983
1.1584253 -0.89701766 0.37609306
1.1563779 -0.9068104 0.37542638
1.1543304 -0.91660315 0.37475973
1.1566801 -0.92987406 0.37551311
1.1546248 -0.93970406 0.3748439
1.1525695 -0.94953394 0.37417471
1.1548882 -0.96295381 0.37491798
1.1528251 -0.97282088 0.37424627
1.1551204 -0.98635232 0.37498191
1.4850582 0.45981637 0.47200868
1.4829454 0.44971111 0.47132072
1.4863034 0.44126457 0.47236437
1.4841828 0.43112212 0.47167391
1.4820622 0.42097968 0.47098342
1.4799415 0.41083723 0.47029296
1.4778209 0.40069479 0.4696025
1.4757003 0.39055228 0.46891204
1.4735796 0.38040984 0.46822158
1.471459 0.37026733 0.46753111
1.4639298 0.35876384 0.46512935
1.4618169 0.34865859 0.46444139
1.4532324 0.33700931 0.46170601
1.4511288 0.32694876 0.46102113
1.4436477 0.31567585 0.45863506
1.4469218 0.30682749 0.45965132
1.4448184 0.29676694 0.45896643
1.4427148 0.28670627 0.45828155
1.4406114 0.27664572 0.45759666
1.4385078 0.26658511 0.45691174
1.4310733 0.25553548 0.45454088
1.4289776 0.24551208 0.45385852
1.4268818 0.23548865 0.45317617
1.4300938 0.22634269 0.45417216
1.4226904 0.21544182 0.45181146
1.4153025 0.2046154 0.44945577
1.4184989 0.19539505 0.45044672
1.4164032 0.1853717 0.44976437
1.4195762 0.17603962 0.4507477
1.4237857 0.16676407 0.45205861
1.4153692 0.15591843 0.44937792
1.4080203 0.14527807 0.44703493
1.4111621 0.13579725 0.44800815
1.4090586 0.12573664 0.44732326
1.4069551 0.11567602 0.44663835
1.3996373 0.10518449 0.44430548
1.4027481 0.095554836 0.44526857
1.4006445 0.085494228 0.44458368
1.3985411 0.075433619 0.4438988
1.3964375 0.065373011 0.44321388
1.3943341 0.055312406 0.44252899
1.3922305 0.045251828 0.44184411
1.3901269 0.035191189 0.44115922
1.3880235 0.025130581 0.44047433
1.3807757 0.014973876 0.43816426
1.37868 0.0049504908 0.43748188
1.3765842 -0.0050728945 0.43679953
1.3744885 -0.01509631 0.43611717
1.3723928 -0.025119696 0.43543482
1.3702971 -0.035143111 0.43475243
1.3682013 -0.045166496 0.43407008
1.3661056 -0.055189881 0.43338773
1.3640099 -0.0652133 0.43270537
1.361914 -0.075236686 0.43202302
1.3598183 -0.085260101 0.43134063
1.3627813 -0.095596664 0.4322556
1.3556269 -0.1053069 0.42997593
1.3535311 -0.1153303 0.42929357
1.3514354 -0.12535369 0.42861122
1.3493397 -0.13537709 0.42792884
1.3472439 -0.14540048 0.42724648
1.3451482 -0.15542388 0.42656413
1.3430525 -0.16544728 0.42588177
1.3409568 -0.17547068 0.42519942
1.338861 -0.18549408 0.42451704
1.3367653 -0.19551748 0.42383468
1.3346696 -0.20554088 0.42315233
1.3276085 -0.21480457 0.42090303
1.3304781 -0.22558767 0.42178762
1.3283824 -0.23561107 0.42110524
1.3262866 -0.24563447 0.42042288
1.3192567 -0.25474936 0.41818371
1.3171687 -0.26473555 0.41750386
1.3150808 -0.27472174 0.41682404
1.3070999 -0.28348383 0.41428521
1.3050213 -0.29342538 0.4136084
1.2980474 -0.30227241 0.4113875
1.2959766 -0.31217676 0.41071326
1.2939057 -0.32208109 0.41003898
1.291835 -0.33198544 0.40936473
1.2946281 -0.34313309 0.41022447
1.2925496 -0.35307464 0.40954769
1.290471 -0.36301619 0.40887091
1.2883923 -0.37295774 0.40819409
1.2814807 -0.38150713 0.40599346
1.2794099 -0.39141145 0.40531921
1.277339 -0.40131578 0.40464494
1.2752682 -0.41122013 0.40397069
1.2731973 -0.42112449 0.40329644
1.2711265 -0.43102881 0.40262219
1.2690557 -0.44093314 0.40194792
1.2717633 -0.45249009 0.40277982
1.264914 -0.46074182 0.40059942
1.2628431 -0.47064617 0.39992517
1.2607723 -0.4805505 0.39925089
1.2587014 -0.49045482 0.39857665
1.251891 -0.49852049 0.39640889
1.2545598 -0.5102635 0.39722815
1.252489 -0.52016789 0.3965539
1.2551345 -0.53202242 0.39736551
1.2483473 -0.53997654 0.39520538
1.2462764 -0.54988092 0.39453113
1.2442056 -0.55978519 0.39385688
1.2421347 -0.56968957 0.39318261
1.2400639 -0.5795939 0.39250836
1.237993 -0.58949822 0.39183411
1.2312604 -0.59719181 0.38969168
1.2291973 -0.60705894 0.38901997
1.2271342 -0.61692607 0.38834825
1.2297097 -0.62911558 0.38913709
1.2276388 -0.63901991 0.38846284
1.2255681 -0.64892429 0.38778856
1.2234972 -0.65882856 0.38711432
1.2214264 -0.66873294 0.38644007
1.2193555 -0.67863733 0.38576582
1.2172847 -0.68854159 0.38509157
1.2152138 -0.69844598 0.3844173
1.213143 -0.7083503 0.38374305
1.2110721 -0.71825463 0.3830688
1.2044406 -0.72546452 0.3809593
1.2023776 -0.73533165 0.38028756
1.2048596 -0.74796766 0.38104603
1.2027888 -0.75787193 0.38037178
1.1961883 -0.76493311 0.37827241
1.1941253 -0.77480018 0.3776007
1.1920623 -0.78466731 0.37692896
1.1899991 -0.79453444 0.37625724
1.1879361 -0.80440152 0.37558553
1.185873 -0.81426871 0.37491378
1.18381 -0.82413578 0.37424207
1.181747 -0.83400297 0.37357035
1.1796838 -0.84387016 0.37289864
1.1731611 -0.85055923 0.37082461
1.1755577 -0.86360431 0.37155518
1.1734947 -0.8734715 0.37088346
1.1714317 -0.88333857 0.37021175
1.1605115 -0.88655204 0.36675572
1.158464 -0.89634472 0.36608908
1.1608294 -0.90953875 0.36680949
1.1587741 -0.91936868 0.36614031
1.1611164 -0.93267429 0.36685315
1.1634429 -0.9460544 0.36756092
1.1569902 -0.95240855 0.36550969
1.1549271 -0.96227574 0.36483797
1.1572303 -0.97576743 0.36553815
1.1551595 -0.9856717 0.3648639
1.1574394 -0.99927497 0.36555648
1.4905847 0.46224654 0.463384
1.4884641 0.45210409 0.46269354
1.4863435 0.44196159 0.46200308
1.4842229 0.43181914 0.46131262
1.4821023 0.4216767 0.46062216
1.4799815 0.41153425 0.45993167
1.4833009 0.40290427 0.46092463
1.4811726 0.39272463 0.46023163
1.4790442 0.38254493 0.45953861
1.4714991 0.37096435 0.4571698
1.4693785 0.36082196 0.45647934
1.4672579 0.35067952 0.45578888
1.4532721 0.33770066 0.45142835
1.4511685 0.32764012 0.45074347
1.4490651 0.31757945 0.45005855
1.4469615 0.30751884 0.44937366
1.4448581 0.29745829 0.44868878
1.4427545 0.28739762 0.44800389
1.4406511 0.27733707 0.447319
1.4385475 0.26727647 0.44663408
1.4364439 0.2572158 0.4459492
1.4290172 0.24620087 0.44361889
1.4269214 0.23617747 0.44293654
1.4301335 0.22703406 0.44389451
1.4280299 0.21697345 0.44320962
1.4206343 0.20610729 0.44088945
1.4238229 0.19685224 0.44183984
1.4217194 0.18679163 0.44115496
1.4196159 0.17673099 0.44047004
1.4175124 0.16667044 0.43978515
1.4154088 0.1566098 0.43910027
1.4133054 0.14654922 0.43841538
1.4112018 0.13648862 0.43773049
1.4090983 0.12642801 0.4370456
1.4069948 0.11636739 0.43636069
1.4048913 0.10630681 0.4356758
1.4027878 0.096246205 0.43499091
1.4006842 0.086185597 0.43430603
1.3985808 0.076124988 0.43362114
1.3964772 0.06606438 0.43293622
1.4005841 0.056300756 0.43416807
1.3984712 0.0461955 0.43348014
1.3963584 0.036090247 0.43279222
1.3942456 0.025984995 0.43210429
1.3808153 0.015662689 0.4279246
1.3838562 0.0057007624 0.42882687
1.3817526 -0.004359846 0.42814198
1.3745281 -0.014407496 0.42587754
1.3724324 -0.024430882 0.42519519
1.3703367 -0.034454297 0.42451283
1.3733386 -0.044602249 0.4254024
1.3712351 -0.054662887 0.42471752
1.3691316 -0.064723469 0.42403263
1.367028 -0.074784078 0.42334774
1.3649246 -0.084844701 0.42266282
1.362821 -0.094905294 0.42197794
1.3607175 -0.10496589 0.42129305
1.3535707 -0.11464149 0.41905394
1.351475 -0.12466489 0.41837159
1.3493793 -0.13468829 0.4176892
1.3523035 -0.14520831 0.41855347
1.3501999 -0.15526892 0.41786858
1.3430921 -0.16475846 0.41564214
1.3409964 -0.17478186 0.41495979
1.3389006 -0.18480526 0.4142774
1.3368049 -0.19482866 0.41359505
1.3347092 -0.20485206 0.4129127
1.3326133 -0.21487546 0.41223034
1.3354753 -0.22569314 0.41307434
1.3333719 -0.23575374 0.41238946
1.3263261 -0.24494565 0.41018325
1.3242304 -0.25496906 0.4095009
1.3221347 -0.26499248 0.40881854
1.320039 -0.27501586 0.40813619
1.3130322 -0.28402168 0.40594259
1.3109442 -0.29400787 0.40526277
1.3088562 -0.30399406 0.40458295
1.3067683 -0.31398025 0.4039031
1.3046803 -0.32396644 0.40322328
1.296746 -0.33250839 0.40074524
1.3005044 -0.34393883 0.40186363
1.2925888 -0.35239145 0.39939168
1.2905102 -0.362333 0.3987149
1.2942405 -0.3738974 0.39982414
1.2921525 -0.3838836 0.39914432
1.2900646 -0.39386979 0.3984645
1.2879766 -0.40385598 0.39778468
1.280117 -0.41204071 0.39533097
1.2780384 -0.42198226 0.39465415
1.2711656 -0.43034819 0.39250419
1.2738812 -0.44186535 0.39330059
1.2670239 -0.45015687 0.39115566
1.2649531 -0.46006119 0.39048141
1.2628822 -0.46996555 0.38980716
1.2655667 -0.48163152 0.39059344
1.2587405 -0.4897742 0.38845864
1.2614095 -0.50151461 0.38923988
1.2593309 -0.51145613 0.38856307
1.2525281 -0.5194872 0.3864359
1.2551737 -0.53133923 0.3872095
1.253095 -0.54128081 0.38653272
1.2510164 -0.55122232 0.38585591
1.2489377 -0.56116384 0.38517913
1.2524815 -0.57362121 0.38622761
1.2503935 -0.58360738 0.38554779
1.2380321 -0.58881754 0.3817161
1.2312993 -0.59651375 0.37961167
1.2338905 -0.60862625 0.38036758
1.2318196 -0.61853057 0.37969333
1.2297488 -0.6284349 0.37901908
1.2323089 -0.64069623 0.37976483
1.2256072 -0.64824361 0.37767056
1.2235363 -0.65814787 0.37699631
1.2214655 -0.66805226 0.37632206
1.2193946 -0.67795664 0.37564781
1.2173238 -0.68786091 0.37497357
1.2198371 -0.70034546 0.37570411
1.2131821 -0.70766962 0.37362504
1.2111112 -0.71757394 0.37295079
1.2136012 -0.73017013 0.37367374
1.2069695 -0.73738259 0.37160227
1.2048987 -0.74728698 0.37092802
1.2073654 -0.75999475 0.37164339
1.200757 -0.76709563 0.36957952
1.1986862 -0.77700001 0.36890525
1.2011296 -0.78981942 0.36961302
1.1990509 -0.799761 0.36893624
1.1924736 -0.80671299 0.3668825
1.1948937 -0.81964397 0.36758265
1.1928151 -0.82958561 0.36690587
1.1817858 -0.83332491 0.36349034
1.1797227 -0.8431921 0.36281863
1.1776596 -0.85305917 0.36214688
1.1755966 -0.86292624 0.36147517
1.1690894 -0.86954355 0.35944426
1.1670341 -0.87937349 0.35877508
1.1605501 -0.88587904 0.35675171
1.1585026 -0.89567173 0.35608503
1.1652813 -0.91226196 0.35811657
1.1632183 -0.92212903 0.35744485
1.1611552 -0.93199623 0.35677311
1.163482 -0.94537371 0.35744292
1.157029 -0.95173049 0.35542968
1.1593403 -0.96518236 0.35609442
1.1572694 -0.97508675 0.35542014
1.1551986 -0.98499101 0.35474589
1.1574786 -0.99859178 0.35540047
1.4906248 0.46294352 0.45302275
1.4885042 0.45280108 0.45233229
1.4984201 0.44631919 0.45528403
1.4962825 0.43609491 0.454588
1.4875978 0.42396316 0.45191133
1.4920069 0.41564623 0.4531959
1.4953094 0.40693703 0.45414531
1.4877315 0.3951976 0.45180383
1.4790843 0.38324448 0.44913933
1.4715391 0.37166134 0.44680855
1.4694185 0.36151895 0.44611809
1.4672979 0.3513765 0.44542763
1.4651773 0.34123406 0.44473717
1.4576709 0.32983702 0.44241902
1.4555582 0.31973177 0.4417311
1.4534453 0.30962646 0.44104317
1.4513324 0.29952121 0.44035524
1.4492196 0.28941596 0.43966728
1.4406908 0.27802846 0.43704134
1.4385872 0.26796785 0.43635643
1.442881 0.25910026 0.4376035
1.4343802 0.24784665 0.43498665
1.4216452 0.23594652 0.43109193
1.4195572 0.2259603 0.43041211
1.4280696 0.21766482 0.43293196
1.4259661 0.20760421 0.43224707
1.4238626 0.19754361 0.43156219
1.428091 0.18836351 0.43278798
1.4259782 0.17825826 0.43210003
1.4238654 0.16815294 0.4314121
1.4217526 0.15804772 0.43072417
1.4196397 0.14794247 0.43003625
1.4175268 0.13783722 0.42934832
1.415414 0.12773196 0.42866039
1.4070345 0.11705876 0.42608303
1.4049309 0.10699818 0.42539814
1.4028275 0.096937574 0.42471325
1.4069626 0.08731097 0.42590865
1.4048498 0.077205688 0.42522073
1.3965169 0.066755749 0.42265856
1.400624 0.056995187 0.42384484
1.3985112 0.046889935 0.42315692
1.4015584 0.036960281 0.42402321
1.3942856 0.02667943 0.42178106
1.3859993 0.016452711 0.4192341
1.3838959 0.0063921334 0.41854921
1.3817923 -0.003668475 0.41786432
1.3796889 -0.013729083 0.41717944
1.3775853 -0.023789663 0.41649455
1.3754818 -0.033850271 0.41580966
1.3733783 -0.04391088 0.41512474
1.3773828 -0.054162588 0.41627759
1.3691713 -0.0640321 0.41375497
1.3670677 -0.074092709 0.41307008
1.3649642 -0.084153332 0.4123852
1.3628607 -0.094213925 0.41170028
1.3607572 -0.10427452 0.41101539
1.3586537 -0.11433513 0.4103305
1.3565502 -0.12439574 0.40964562
1.3544466 -0.13445634 0.40896073
1.3523432 -0.14451694 0.40827581
1.3502396 -0.15457755 0.40759093
1.3481362 -0.16463815 0.40690604
1.3460326 -0.17469876 0.40622115
1.3439291 -0.18475936 0.40553626
1.3418256 -0.19481996 0.40485135
1.3347487 -0.20416325 0.40267307
1.3376186 -0.21494117 0.40348157
1.335515 -0.22500177 0.40279669
1.3334116 -0.23506238 0.4021118
1.331308 -0.24512298 0.40142688
1.32427 -0.25428024 0.39926127
1.3221743 -0.26430365 0.39857891
1.3200786 -0.27432704 0.39789656
1.3130716 -0.28333542 0.39574093
1.3109837 -0.29332161 0.39506111
1.3088957 -0.3033078 0.39438128
1.3068078 -0.31329399 0.39370143
1.3047198 -0.32328019 0.39302161
1.3026319 -0.33326638 0.39234179
1.3005439 -0.34325257 0.39166197
1.292628 -0.35170826 0.38923562
1.2905494 -0.36164981 0.38855883
1.2884707 -0.37159136 0.38788202
1.292192 -0.38319734 0.38894266
1.290104 -0.39318353 0.38826284
1.2880161 -0.40316972 0.38758299
1.2859281 -0.41315591 0.38690317
1.2838402 -0.42314211 0.38622335
1.2759991 -0.43124062 0.38382131
1.2739204 -0.44118217 0.38314453
1.2718418 -0.45112371 0.38246775
1.2697632 -0.46106523 0.38179094
1.2676846 -0.47100681 0.38111416
1.2656059 -0.48094833 0.38043737
1.2635273 -0.49088991 0.37976059
1.2671366 -0.50303161 0.38078472
1.2593701 -0.51077294 0.378407
1.2629607 -0.523004 0.37942508
1.2608727 -0.53299016 0.37874526
1.2587848 -0.54297638 0.37806544
1.2566968 -0.55296254 0.37738559
1.2489769 -0.56048065 0.37502307
1.2525209 -0.57293493 0.37602594
1.250433 -0.58292109 0.37534612
1.2380712 -0.58813691 0.37159806
1.2360004 -0.5980413 0.37092382
1.2385839 -0.61018842 0.37163913
1.2365053 -0.62013 0.37096235
1.2344266 -0.63007152 0.37028554
1.2323481 -0.64001304 0.36960876
1.2302694 -0.64995462 0.36893198
1.2281908 -0.65989614 0.3682552
1.2261121 -0.66983765 0.36757842
1.2194337 -0.67727602 0.36552978
1.2219549 -0.68972075 0.36622483
1.2198763 -0.69966227 0.36554804
1.2177976 -0.70960385 0.36487126
1.2111503 -0.71689332 0.36283275
1.2136405 -0.72948694 0.36351767
1.2115618 -0.73942846 0.36284089
1.2094833 -0.74937004 0.36216411
1.2074046 -0.75931156 0.36148733
1.205326 -0.76925313 0.36081052
1.2032473 -0.77919465 0.36013374
1.2011688 -0.78913623 0.35945696
1.1990901 -0.79907781 0.35878018
1.1925128 -0.80603236 0.35676447
1.1949329 -0.81896079 0.35742658
1.1928543 -0.82890242 0.3567498
1.1907756 -0.83884394 0.35607302
1.1797616 -0.84251404 0.35273862
1.1866184 -0.85872704 0.35471943
1.1800877 -0.86545837 0.35271892
1.1780169 -0.87536275 0.35204467
1.175946 -0.88526702 0.35137042
1.1694463 -0.89184964 0.34938002
1.1673833 -0.90171683 0.34870827
1.1653203 -0.9115839 0.34803656
1.1588517 -0.91801763 0.34605631
1.1611942 -0.93131816 0.34669313
1.1635211 -0.94469309 0.34732488
1.1614501 -0.95459747 0.34665063
1.1593794 -0.96450174 0.34597638
1.1573085 -0.97440612 0.34530213
1.1552377 -0.98431039 0.34462789
1.1575178 -0.99790859 0.34524441
1.4961517 0.46538129 0.44428405
1.5005983 0.45724615 0.44553518
1.5039319 0.44868821 0.44645664
1.5017865 0.43842667 0.44575807
1.487638 0.42466271 0.44151208
1.4920473 0.41634884 0.44275102
1.4833812 0.40430337 0.44012609
1.4812528 0.39412373 0.43943307
1.4856341 0.38567594 0.44066292
1.4769959 0.3737644 0.43804708
1.4694585 0.36221594 0.4357568
1.4727392 0.35340506 0.43666109
1.4652172 0.34193105 0.43437588
1.4577107 0.33053145 0.43209574
1.4609759 0.32164603 0.43299496
1.4534851 0.31032088 0.43071988
1.4513723 0.30021563 0.43003196
1.4492594 0.29011038 0.429344
1.4471465 0.28000519 0.42865607
1.4450337 0.26989987 0.42796814
1.4429208 0.25979468 0.42728022
1.4408079 0.24968939 0.42659229
1.4323162 0.23847741 0.42402413
1.4302127 0.2284168 0.42333922
1.4281092 0.21835619 0.42265433
1.4260057 0.20829558 0.42196944
1.4302437 0.19916314 0.42315263
1.4281309 0.18905795 0.4224647
1.426018 0.17895269 0.42177674
1.4239053 0.16884738 0.42108881
1.4217924 0.15874216 0.42040089
1.4196795 0.14863691 0.41971296
1.4175667 0.13853166 0.41902503
1.4154538 0.1284264 0.41833711
1.4133409 0.11832114 0.41764915
1.4112281 0.10821588 0.41696122
1.4091153 0.098110631 0.4162733
1.4070024 0.088005409 0.41558537
1.4048896 0.077900127 0.41489744
1.4027767 0.067794874 0.41420951
1.4006639 0.057689626 0.41352156
1.4037189 0.047799721 0.41435239
1.4015983 0.037657276 0.41366193
1.3943254 0.027373869 0.41145778
1.3922125 0.017268617 0.41076985
1.3952365 0.0072298786 0.41159052
1.3879868 -0.0029418869 0.40939397
1.3858739 -0.013047139 0.40870604
1.383761 -0.023152392 0.40801811
1.3755214 -0.033158902 0.40553203
1.3734179 -0.04321951 0.40484712
1.3713144 -0.053280149 0.40416223
1.3692108 -0.063340731 0.40347734
1.3731968 -0.073678643 0.40457845
1.3650038 -0.083461963 0.40210757
1.3629003 -0.093522556 0.40142265
1.3607968 -0.10358315 0.40073776
1.3586932 -0.11364376 0.40005288
1.3565898 -0.12370437 0.39936799
1.3544862 -0.13376497 0.3986831
1.3523828 -0.14382558 0.39799818
1.3502792 -0.15388618 0.3973133
1.3481758 -0.16394678 0.39662841
1.3520683 -0.17473115 0.39769912
1.3439686 -0.18406799 0.39525864
1.3418652 -0.19412859 0.39457372
1.3397616 -0.20418921 0.39388883
1.3376582 -0.2142498 0.39320394
1.3355546 -0.2243104 0.39251906
1.3334512 -0.23437101 0.39183417
1.3313476 -0.24443161 0.39114925
1.3292441 -0.25449222 0.39046437
1.3271406 -0.26455283 0.38977948
1.325037 -0.27461344 0.38909459
1.3180223 -0.28366163 0.38697454
1.3159266 -0.29368502 0.38629219
1.3138309 -0.30370843 0.38560984
1.311735 -0.31373182 0.38492748
1.3096393 -0.32375523 0.38424513
1.3075436 -0.33377862 0.38356274
1.3054479 -0.34380201 0.38288039
1.2984953 -0.3525525 0.38078052
1.2964072 -0.3625387 0.38010067
1.2943193 -0.37252489 0.37942085
1.2922313 -0.38251108 0.37874103
1.2901434 -0.39249727 0.37806121
1.2880554 -0.40248346 0.37738135
1.2859675 -0.41246966 0.37670153
1.2838795 -0.42245585 0.37602171
1.2817916 -0.43244201 0.37534189
1.2797036 -0.44242823 0.37466207
1.2776157 -0.45241439 0.37398222
1.2755277 -0.46240062 0.3733024
1.2734398 -0.47238678 0.37262258
1.2713518 -0.482373 0.37194276
1.2692639 -0.49235916 0.37126294
1.2671759 -0.50234538 0.37058309
1.265088 -0.51233155 0.36990327
1.263 -0.52231777 0.36922345
1.2609121 -0.53230393 0.36854362
1.2588241 -0.54229015 0.3678638
1.2567362 -0.55227631 0.36718395
1.2546482 -0.56226254 0.36650413
1.2525603 -0.5722487 0.36582431
1.2504723 -0.58223486 0.36514449
1.2427803 -0.58962214 0.36283669
1.2462964 -0.6022073 0.36378482
1.2386231 -0.60950524 0.36148313
1.2365445 -0.61944681 0.36080635
1.2344658 -0.62938833 0.36012957
1.2323873 -0.63932985 0.35945275
1.2358567 -0.65213823 0.36038569
1.2337687 -0.6621244 0.35970587
1.2316806 -0.67211062 0.35902604
1.2240728 -0.67909604 0.35674563
1.2219942 -0.68903756 0.35606882
1.2254168 -0.70206916 0.35698655
1.2178369 -0.70892066 0.35471526
1.2157583 -0.71886224 0.35403845
1.2191529 -0.73202777 0.35494706
1.217065 -0.74201393 0.35426724
1.2095225 -0.74868685 0.3520081
1.2074438 -0.75862837 0.35133132
1.2053652 -0.76856995 0.35065451
1.2032865 -0.77851146 0.34997773
1.2066252 -0.79194486 0.35086811
1.1991293 -0.79839462 0.34862417
1.1970507 -0.80833608 0.34794739
1.1949722 -0.8182776 0.34727058
1.1928935 -0.82821923 0.3465938
1.1908149 -0.83816075 0.34591702
1.1887362 -0.84810227 0.34524021
1.1866577 -0.85804385 0.34456342
1.184579 -0.86798537 0.34388664
1.1825004 -0.87792695 0.34320986
1.1804217 -0.88786852 0.34253308
1.1739143 -0.89449078 0.34057817
1.1718435 -0.90439516 0.33990389
1.1697726 -0.91429943 0.33922964
1.1677018 -0.92420369 0.3385554
1.1656309 -0.93410808 0.33788112
1.1635602 -0.94401246 0.33720687
1.1614892 -0.95391685 0.33653262
1.1594185 -0.96382111 0.33585837
1.1617142 -0.97734237 0.33644199
1.1596355 -0.98728389 0.33576518
1.157557 -0.9972254 0.3350884
1.5027764 0.46817306 0.43578631
1.5006386 0.45794877 0.43509027
1.5039724 0.44939339 0.43597379
1.501827 0.43913186 0.4352752
1.4942254 0.42727581 0.43300217
1.4920876 0.41705146 0.43230614
1.4834213 0.40500292 0.42972681
1.481293 0.39482328 0.42903379
1.4856744 0.38637856 0.43021801
1.4835367 0.37615421 0.42952198
1.4749078 0.36428425 0.42695481
1.4727794 0.35410461 0.42626181
1.4706509 0.34392491 0.42556882
1.4577506 0.3312259 0.42177248
1.4610159 0.32234302 0.42263371
1.4535249 0.31101534 0.42039663
1.4514121 0.30091009 0.4197087
1.4492992 0.29080483 0.41902074
1.4471864 0.28069964 0.41833282
1.4450735 0.27059433 0.41764489
1.4429606 0.26048914 0.41695696
1.4408478 0.25038382 0.41626903
1.4440509 0.24120341 0.41710997
1.4366221 0.23017333 0.41489315
1.4281489 0.21904756 0.41237667
1.4260454 0.20898695 0.41169178
1.4239419 0.19892634 0.4110069
1.4281707 0.18975239 0.41214144
1.4260578 0.17964713 0.41145352
1.4239451 0.16954182 0.41076556
1.4218322 0.1594366 0.41007763
1.4197193 0.14933135 0.4093897
1.4176065 0.13922609 0.40870178
1.420724 0.12963644 0.40951487
1.4186034 0.11949392 0.40882438
1.4164828 0.10935151 0.40813392
1.4143622 0.099209033 0.40744346
1.4122416 0.089066558 0.406753
1.410121 0.078924112 0.40606254
1.4080003 0.068781666 0.40537205
1.4058796 0.058639195 0.40468159
1.4089271 0.048714679 0.40547186
1.4016384 0.03835427 0.40330067
1.3995178 0.028211825 0.40261021
1.3973972 0.018069349 0.40191975
1.4004135 0.0079960329 0.40269986
1.3931559 -0.0022155428 0.4005388
1.3910353 -0.012358018 0.39984834
1.3889147 -0.022500493 0.39915788
1.3755611 -0.032467533 0.39525437
1.3734576 -0.042528141 0.39456946
1.3774624 -0.05277371 0.39563105
1.3804321 -0.063070305 0.39639601
1.3783115 -0.07321275 0.39570555
1.3761909 -0.083355226 0.39501509
1.3690109 -0.093194723 0.39287934
1.3668982 -0.10329996 0.39219138
1.3647853 -0.11340521 0.39150345
1.3566295 -0.123013 0.38909033
1.3605596 -0.13361573 0.3901276
1.3584467 -0.14372097 0.38943967
1.3503189 -0.15319481 0.38703564
1.354221 -0.16393146 0.38806379
1.3521081 -0.17403671 0.38737586
1.3499954 -0.18414196 0.38668793
1.3419049 -0.19343722 0.38429606
1.3398013 -0.20349784 0.38361117
1.3376979 -0.21355844 0.38292629
1.3415439 -0.22456299 0.3839362
1.339431 -0.23466823 0.38324827
1.3373183 -0.24477348 0.38256034
1.3352054 -0.25487873 0.38187242
1.3330926 -0.26498401 0.38118449
1.3250767 -0.27392209 0.37881693
1.3180618 -0.28297281 0.37673488
1.3159661 -0.29299623 0.37605253
1.3138704 -0.30301964 0.37537017
1.3117746 -0.313043 0.37468782
1.3096789 -0.32306641 0.37400547
1.3075832 -0.33308983 0.37332308
1.3006227 -0.34188005 0.37125871
1.2985348 -0.35186625 0.37057889
1.2964467 -0.36185244 0.36989903
1.2992003 -0.37318343 0.37059364
1.2971045 -0.38320678 0.36991128
1.2950088 -0.3932302 0.36922893
1.2880949 -0.40179721 0.36717972
1.2860069 -0.4117834 0.3664999
1.283919 -0.42176959 0.36582008
1.281831 -0.43175575 0.36514026
1.2797431 -0.44174197 0.36446044
1.2824343 -0.45337057 0.36513478
1.2755672 -0.46171436 0.36310077
