# .PCD v0.7 - Point Cloud Data file format
VERSION 0.7
FIELDS x y z
SIZE 4 4 4
TYPE F F F
COUNT 1 1 1
WIDTH 1478
HEIGHT 1
VIEWPOINT 0 0 0 1 0 0 0
POINTS 1478
DATA ascii
1.7791572 0.63036746 -0.40961719
1.7777882 0.61744857 -0.41004014
1.8461771 0.8459307 -0.42698199
1.8352733 0.82837838 -0.42522138
1.8243841 0.81096262 -0.42345631
1.8419644 0.80617446 -0.42828351
1.8310822 0.7888267 -0.42651618
1.8202147 0.77161545 -0.42474443
1.8188249 0.75849968 -0.42517382
1.8174351 0.7453838 -0.42560315
1.8065964 0.72844517 -0.42382246
1.8146555 0.71915227 -0.42646194
1.8132657 0.70603651 -0.42689127
1.8118759 0.69292063 -0.42732066
1.801066 0.67625463 -0.42553103
1.7819037 0.65662962 -0.42176253
1.7899404 0.64712471 -0.42440885
1.7791659 0.63079184 -0.42260838
1.7777969 0.61787295 -0.42303133
1.776428 0.60495412 -0.42345423
1.846186 0.84636599 -0.44030821
1.8257828 0.82450938 -0.43621612
1.8338851 0.81562757 -0.43891066
1.8419733 0.80660975 -0.44160974
1.831091 0.78925979 -0.43977386
1.829694 0.77607584 -0.44020545
1.828297 0.76289189 -0.44063705
1.817444 0.74581468 -0.43879229
1.8160541 0.73269892 -0.43922168
1.8146644 0.71958315 -0.43965107
1.8132745 0.70646739 -0.4400804
1.8118848 0.69335151 -0.4405098
1.8010747 0.67668319 -0.43865162
1.7996922 0.66363561 -0.43907881
1.7899491 0.64755136 -0.43746859
1.7885728 0.63456428 -0.43789375
1.7871966 0.62157726 -0.43831891
1.8557017 0.85117376 -0.45596373
1.8447906 0.8335492 -0.45406824
1.833894 0.81606066 -0.45216835
1.8419821 0.8070451 -0.45493591
1.8405778 0.79379296 -0.45536977
1.8391736 0.78054082 -0.45580357
1.828306 0.76332498 -0.45389473
1.8269089 0.75014108 -0.45432633
1.8160629 0.73312974 -0.45241088
1.8241149 0.72377318 -0.45518953
1.8132833 0.70689821 -0.4532696
1.8118936 0.69378233 -0.45369893
1.8105037 0.68066669 -0.45412832
1.809114 0.66755092 -0.45455772
1.7983184 0.65101659 -0.45262653
1.7969358 0.63796896 -0.45305365
1.8557106 0.85161132 -0.4693585
1.8447995 0.83398449 -0.46739453
1.8433952 0.82073241 -0.46782833
1.8514762 0.81165069 -0.47066671
1.8405868 0.79422826 -0.468696
1.8391825 0.78097612 -0.46912986
1.8377783 0.76772404 -0.46956366
1.8269178 0.75057417 -0.46758407
1.8160717 0.73356056 -0.46560007
1.814682 0.7204448 -0.46602941
1.8227267 0.71102238 -0.46887887
1.8119024 0.69421315 -0.46688813
1.8105125 0.68109751 -0.46731752
1.8091228 0.66798174 -0.46774691
1.8077329 0.65486598 -0.46817625
1.6476239 0.073177129 -0.45954978
1.827199 0.83891761 -0.47535414
1.8353087 0.83011067 -0.47825217
1.8339117 0.81692678 -0.47868377
1.8230296 0.79957032 -0.47664225
1.8311176 0.79055899 -0.47954696
1.8297206 0.77737504 -0.47997856
1.8283236 0.76419109 -0.48041016
1.8269266 0.7510072 -0.48084176
1.8160806 0.73399138 -0.47878909
1.8146908 0.72087562 -0.47921848
1.813301 0.70775986 -0.47964782
1.8119112 0.69464397 -0.48007721
1.8105214 0.68152833 -0.48050654
1.8091316 0.66841257 -0.48093593
1.7983359 0.65187377 -0.47886777
1.806352 0.64218092 -0.48179466
1.662779 0.074290581 -0.47631896
1.8092501 0.83107638 -0.48375523
1.807874 0.81808931 -0.48418039
1.8149356 0.80887383 -0.48686272
1.8051217 0.79211527 -0.48503071
1.8121704 0.78277862 -0.48771703
1.8023694 0.76614112 -0.48588103
1.8009932 0.7531541 -0.48630619
1.8080227 0.74363577 -0.48899841
1.7982409 0.72718006 -0.48715651
1.7874229 0.71042699 -0.48502672
1.7860539 0.6975081 -0.48544967
1.784685 0.68458927 -0.48587257
1.783316 0.67167032 -0.48629552
1.7735801 0.65564626 -0.48443937
1.7805781 0.64583254 -0.48714131
1.7708551 0.62992966 -0.48528123
1.7694925 0.61707133 -0.48570216
1.7764714 0.60707593 -0.48841012
1.799752 0.82712144 -0.49421155
1.7899389 0.81036836 -0.49231833
1.7801385 0.79373652 -0.49042112
1.7872139 0.78465176 -0.49316019
1.7858514 0.77179343 -0.49358112
1.7844888 0.75893509 -0.49400204
1.7831264 0.74607682 -0.49442303
1.7817638 0.73321849 -0.49484396
1.7625529 0.71311378 -0.49031359
1.761204 0.70038426 -0.49073035
1.7692897 0.69135463 -0.49377275
1.7585062 0.67492503 -0.4915638
1.7571573 0.6621955 -0.49198049
1.7652215 0.65296143 -0.49502963
1.7638654 0.64016372 -0.49544859
1.7625092 0.62736601 -0.49586755
1.7611531 0.61456835 -0.49628651
1.7681386 0.60463542 -0.49905336
1.758441 0.58897293 -0.49712437
1.7570848 0.57617515 -0.49754333
1.738044 0.55767578 -0.49296045
1.7367016 0.54500681 -0.49337518
1.758601 0.51462728 -0.50199991
1.7572385 0.50176895 -0.50242084
1.7558759 0.48891073 -0.50284177
1.7545135 0.4760524 -0.5032627
1.7733525 0.81536847 -0.4997806
1.7635592 0.79880273 -0.49782026
1.7622168 0.78613377 -0.49823499
1.752443 0.76974982 -0.49626875
1.7595319 0.76079583 -0.49906451
1.7666081 0.75172061 -0.50186425
1.756847 0.73545784 -0.49989396
1.7470988 0.71931618 -0.4979198
1.7457627 0.70670778 -0.49833256
1.7444267 0.69409937 -0.49874532
1.7430906 0.6814909 -0.49915808
1.7501347 0.67211288 -0.50196767
1.7404186 0.65627408 -0.49998361
1.7390826 0.64366567 -0.50039637
1.7377465 0.63105726 -0.50080907
1.7447649 0.62143689 -0.50362664
1.7434224 0.60876787 -0.50404137
1.7253968 0.59036511 -0.49963856
1.7240672 0.57781732 -0.50004935
1.739395 0.57076091 -0.50528562
1.7297302 0.55540681 -0.50328565
1.7283943 0.5427984 -0.50369841
1.7270582 0.53018999 -0.50411117
1.7008131 0.51007146 -0.49726188
1.7160895 0.50253034 -0.502514
1.7230501 0.49236479 -0.50534946
1.721714 0.47975639 -0.50576222
1.720378 0.46714798 -0.50617492
1.7190419 0.45453957 -0.50658768
1.6489683 0.087176621 -0.50891626
1.7480086 0.80409044 -0.5052734
1.7466791 0.79154259 -0.50568414
1.7453494 0.7789948 -0.50609493
1.7440199 0.76644695 -0.50650573
1.7511153 0.7575556 -0.50936043
1.7413605 0.74135131 -0.50732726
1.740031 0.72880346 -0.50773805
1.7302957 0.71278101 -0.50569898
1.7289724 0.70029372 -0.50610775
1.7276493 0.68780649 -0.50651658
1.7263261 0.67531925 -0.50692534
1.7250029 0.66283196 -0.50733411
1.715306 0.64717299 -0.50528318
1.7223564 0.6378575 -0.50815171
1.729394 0.62842083 -0.51102424
1.7113557 0.60989302 -0.50650358
1.7100389 0.59746629 -0.50691038
1.7087221 0.58503968 -0.50731725
1.700112 0.5701558 -0.50556129
1.7060885 0.56018633 -0.50813085
1.703455 0.53533304 -0.50894445
1.7021382 0.5229063 -0.50935125
1.6935562 0.50828755 -0.50758666
1.692245 0.49591389 -0.50799173
1.6981878 0.4856264 -0.51057172
1.696871 0.47319973 -0.51097852
1.6955544 0.46077305 -0.51138532
1.6421967 0.099450573 -0.51840699
1.7237213 0.79328811 -0.51071286
1.7224101 0.78091443 -0.51111794
1.7284821 0.7718479 -0.51371127
1.7355968 0.7631402 -0.51662093
1.7184765 0.74379349 -0.51233315
1.7171655 0.7314198 -0.51273823
1.7158543 0.71904618 -0.5131433
1.7145431 0.70667249 -0.51354837
1.7205814 0.69728792 -0.51615208
1.7119207 0.68192524 -0.51435852
1.7106097 0.66955155 -0.51476359
1.7092985 0.65717787 -0.51516867
1.6996136 0.64163047 -0.51305306
1.6983088 0.6293174 -0.51345617
1.6886432 0.61395168 -0.51133454
1.6956993 0.60469121 -0.51426232
1.6834499 0.56494176 -0.51293898
1.687871 0.53081274 -0.5166809
1.6948757 0.52106768 -0.51962447
1.6935645 0.50869399 -0.52002954
1.6743616 0.47917432 -0.51574671
1.6131433 0.11003526 -0.52061349
1.6189426 0.098394051 -0.52329105
1.6994334 0.78247434 -0.51580203
1.6981407 0.77027482 -0.51620138
1.7042313 0.76138419 -0.51884228
1.702933 0.74913168 -0.51924336
1.7016346 0.73687923 -0.51964444
1.7003363 0.72462672 -0.52004558
1.6916772 0.70927733 -0.51819825
1.6903845 0.69707787 -0.5185976
1.6806924 0.68146038 -0.51642329
1.6877991 0.67267889 -0.51939636
1.6865064 0.66047937 -0.51979572
1.6852137 0.64827991 -0.52019513
1.6755472 0.63290477 -0.51801282
1.674261 0.62076581 -0.51841021
1.6813356 0.61168146 -0.52139324
1.6800429 0.59948194 -0.52179259
1.6787502 0.58728248 -0.52219194
1.6691159 0.57221019 -0.5199998
1.6588255 0.47509891 -0.52317888
1.6430426 0.45888674 -0.51900983
1.6490102 0.44883746 -0.5216887
1.606066 0.10993284 -0.53043342
1.6047909 0.097899973 -0.53082734
1.6909909 0.77897036 -0.525451
1.6897047 0.7668314 -0.52584839
1.6884184 0.75469255 -0.52624583
1.6871321 0.74255371 -0.52664322
1.6784737 0.72721016 -0.52474213
1.6698267 0.71197271 -0.52283776
1.6759124 0.70303839 -0.52553344
1.6819869 0.69399798 -0.52823275
1.673351 0.67886657 -0.52632475
1.6720704 0.66678071 -0.5267204
1.6707897 0.6546948 -0.52711606
1.6621765 0.63977534 -0.52520126
1.6682284 0.63052297 -0.52790737
1.6512588 0.6125924 -0.52334458
1.6583513 0.60367668 -0.52638304
1.6643864 0.59426528 -0.52909434
1.6558012 0.57961094 -0.52717084
1.6461843 0.56470317 -0.5249123
1.6398412 0.50484157 -0.52687198
1.6385726 0.49286932 -0.52726388
1.6373039 0.48089701 -0.52765584
1.6360353 0.46892476 -0.5280478
1.5838051 0.10875309 -0.53503209
1.6603647 0.76520741 -0.52794409
1.6664906 0.75665343 -0.53068072
1.6652219 0.74468106 -0.53107262
1.6639533 0.73270881 -0.53146458
1.6626847 0.72073644 -0.53185654
1.6540496 0.70561093 -0.52989507
1.6527866 0.69369167 -0.53028524
1.6588788 0.68481958 -0.5330323
1.6576102 0.67284721 -0.53342426
1.6563416 0.6608749 -0.53381622
1.6477345 0.64601445 -0.53184605
1.6464716 0.63409507 -0.53223628
1.6452086 0.62217581 -0.53262645
1.6439456 0.61025655 -0.53301668
1.6426826 0.59833717 -0.53340685
1.634109 0.58379459 -0.53142625
1.6255471 0.56935811 -0.52944225
1.5625565 0.10763425 -0.53964442
1.6529781 0.76217878 -0.53753203
1.6443318 0.74694544 -0.53552061
1.64308 0.73513222 -0.53590739
1.6565837 0.72984105 -0.54110062
1.6553206 0.71792179 -0.54149079
1.6466911 0.70284736 -0.53947437
1.630712 0.68477696 -0.53504592
1.6294658 0.67301685 -0.53543091
1.6355693 0.66425246 -0.53822774
1.6269735 0.64949614 -0.53620088
1.6330657 0.64062589 -0.53900117
1.631814 0.62881261 -0.53938794
1.623235 0.61421531 -0.5373559
1.6219888 0.60245508 -0.53774089
1.6207427 0.59069484 -0.53812587
1.6194965 0.57893449 -0.53851086
1.5567135 0.11916844 -0.54854214
1.6308024 0.75230318 -0.54211074
1.6295619 0.74059588 -0.542494
1.6357045 0.73220444 -0.54533201
1.6344583 0.7204442 -0.545717
1.6332122 0.70868385 -0.54610199
1.6245997 0.69376683 -0.54402703
1.6233591 0.68205953 -0.54441029
1.6221186 0.67035228 -0.54479355
1.620878 0.65864503 -0.5451768
1.6196375 0.64693779 -0.54556006
1.6110582 0.6323387 -0.54347461
1.6171564 0.62352324 -0.54632658
1.6159158 0.61181599 -0.54670984
1.600032 0.59464324 -0.54214531
1.5988027 0.58304191 -0.54252511
1.5232911 0.11691422 -0.54826361
1.6086264 0.74241704 -0.54636955
1.6147915 0.73423934 -0.549254
1.606179 0.71932054 -0.5471257
1.6049553 0.70777237 -0.54750371
1.6037316 0.69622409 -0.54788178
1.6025079 0.68467587 -0.54825985
1.6012843 0.67312759 -0.54863787
1.6074157 0.66463184 -0.55153275
1.5988368 0.65003109 -0.54939401
1.5976131 0.63848293 -0.54977202
1.5963894 0.62693459 -0.5501501
1.5951657 0.61538637 -0.55052817
1.593942 0.60383809 -0.55090618
1.5864426 0.58994609 -0.54911816
1.5583067 0.51402521 -0.54412729
1.5885627 0.73349905 -0.55103952
1.5873543 0.72209466 -0.55141288
1.5924746 0.71353549 -0.55398166
1.5986391 0.70535189 -0.55691963
1.5974203 0.69384915 -0.55729616
1.5888348 0.67918611 -0.55510616
1.5876216 0.66773641 -0.55548096
1.5864083 0.65628654 -0.55585581
1.5715455 0.63926291 -0.55145442
1.5776867 0.63085973 -0.55439961
1.5827684 0.62193716 -0.55698031
1.5815552 0.61048728 -0.55735511
1.5803419 0.59903753 -0.55772996
1.5655314 0.58250618 -0.55331248
1.5716444 0.573838 -0.55626631
1.5674428 0.72408211 -0.55504704
1.5662504 0.71282923 -0.55541545
1.5713867 0.70442295 -0.55802494
1.5701895 0.69312453 -0.55839485
1.5626732 0.67907047 -0.55652058
1.567795 0.67052794 -0.55913454
1.5665978 0.65922952 -0.55950445
1.5654006 0.64793122 -0.5598743
1.5642034 0.6366328 -0.5602442
1.5567112 0.62280583 -0.55836254
1.5555187 0.61155295 -0.5587309
1.5543264 0.60030007 -0.55909932
1.5395261 0.58386397 -0.55457956
1.5519415 0.57779431 -0.55983603
1.5537173 0.71808398 -0.56141448
1.5525353 0.70692956 -0.56177962
1.5513533 0.69577509 -0.56214482
1.5501714 0.68462062 -0.56250995
1.5489894 0.67346615 -0.56287509
1.555174 0.66547543 -0.5659135
1.5539864 0.65426803 -0.56628042
1.5454435 0.64000279 -0.56397063
1.5516113 0.63185304 -0.56701422
1.5430795 0.61769384 -0.5647009
1.5418975 0.60653937 -0.5650661
1.5344304 0.59294569 -0.56313103
1.5332532 0.5818367 -0.56349468
1.5383517 0.57307589 -0.56616157
1.4618149 0.13517018 -0.5685966
1.5295341 0.71766132 -0.56295383
1.5410482 0.71256959 -0.56797218
1.5462095 0.70440096 -0.57066542
1.5450323 0.69329196 -0.57102913
1.5375311 0.67937881 -0.56905872
1.542678 0.67107379 -0.57175648
1.5415008 0.65996486 -0.57212013
1.5340141 0.64618796 -0.57014531
1.5265368 0.63250196 -0.56816745
1.5190697 0.6189068 -0.56618673
1.5304971 0.61299723 -0.57123184
1.5167443 0.59696138 -0.56690514
1.5218668 0.58842933 -0.56961024
1.52698 0.57980639 -0.57231843
1.5320835 0.57109261 -0.57502955
1.5231981 0.71503443 -0.57161421
1.5220402 0.70410711 -0.57197189
1.5145488 0.69028324 -0.56995285
1.5197245 0.68225253 -0.57268739
1.5248907 0.67413092 -0.57542473
1.5237279 0.66315818 -0.57578391
1.5225651 0.65218544 -0.57614315
1.5150928 0.63854337 -0.57411826
1.5076302 0.62499219 -0.57209027
1.5064771 0.61411041 -0.57244653
1.5116192 0.60576153 -0.57519144
1.5167516 0.59732181 -0.57793921
1.5155889 0.58634907 -0.57829839
1.5081455 0.57297963 -0.57626462
1.5132635 0.56440371 -0.57901686
1.4851462 0.69746011 -0.56808567
1.4903555 0.68974888 -0.57085556
1.4955553 0.68194669 -0.57362813
1.5070742 0.67690641 -0.57882786
1.505926 0.66606998 -0.57918262
1.4984585 0.65247178 -0.57711053
1.5036294 0.6443972 -0.5798921
1.5024811 0.63356072 -0.58024687
1.5013329 0.62272435 -0.58060157
1.5001847 0.61188793 -0.58095634
1.4927412 0.59851688 -0.57887679
1.4978881 0.59021509 -0.58166581
1.4904543 0.57693493 -0.57958335
1.4893109 0.56614393 -0.57993662
1.4881674 0.55535299 -0.58028984
1.4557918 0.42043859 -0.57715446
1.4798671 0.69531816 -0.57674575
1.4787421 0.68470126 -0.5770933
1.4892288 0.67940027 -0.5819658
1.4944237 0.67155421 -0.5847857
1.4869612 0.65800005 -0.58266634
1.4858274 0.64729995 -0.58301663
1.4887305 0.6178264 -0.58654457
1.4875919 0.60708088 -0.58689636
1.4801582 0.59379935 -0.58476806
1.4727341 0.58060867 -0.58263683
1.4767568 0.56169903 -0.58581895
1.459186 0.45275262 -0.58682239
1.4528672 0.44051462 -0.58508718
1.4455191 0.42804331 -0.58293235
1.4555582 0.68419808 -0.57779694
1.4607903 0.6767019 -0.58065122
1.4712906 0.67153227 -0.58560312
1.4817734 0.66619605 -0.59056073
1.4753743 0.65319955 -0.58881217
1.4708743 0.61073232 -0.59020239
1.4697493 0.60011554 -0.59054995
1.4686244 0.58949876 -0.59089756
1.4629993 0.53641474 -0.59263533
1.4618744 0.52579784 -0.59298289
1.4301077 0.44401732 -0.58565968
1.4439358 0.67905319 -0.58361101
1.4491765 0.67164189 -0.58650821
1.4596859 0.66655833 -0.59154129
1.4638487 0.65845108 -0.59401876
1.4627334 0.64792514 -0.59436333
1.4593872 0.61634731 -0.59539711
1.4582719 0.60582143 -0.59574169
1.4560411 0.58476949 -0.59643084
1.4549258 0.57424361 -0.59677547
1.4538103 0.5637176 -0.59712005
1.4474609 0.55118942 -0.59531808
1.4515797 0.54266572 -0.5978092
1.4452382 0.5302133 -0.59600478
1.4378605 0.51745886 -0.59376782
1.4271259 0.46354631 -0.59332055
1.3857949 0.28202015 -0.58952993
1.3847101 0.27178198 -0.58986509
1.3720143 0.19936195 -0.5900237
1.3738612 0.16940016 -0.59321672
1.3727764 0.15916198 -0.59355187
1.4333705 0.67440212 -0.58969134
1.4375629 0.66657633 -0.59219772
1.4364693 0.65625489 -0.59253561
1.4406495 0.64831549 -0.59504575
1.4395518 0.6379562 -0.5953849
1.4447736 0.63036454 -0.59833366
1.443671 0.61995971 -0.5986743
1.4425684 0.60955495 -0.59901494
1.4414659 0.59915018 -0.59935552
1.4403634 0.58874542 -0.59969616
1.4445068 0.58045775 -0.60221773
1.4496907 0.57251006 -0.60517824
1.4422938 0.5595724 -0.60290146
1.4296724 0.54472208 -0.59843707
1.4285746 0.53436279 -0.59877622
1.4274769 0.52400339 -0.59911531
1.4263792 0.5136441 -0.59945446
1.4252814 0.50328469 -0.59979361
1.4241837 0.49292541 -0.6001327
1.4178762 0.48078975 -0.59827977
1.4115766 0.46872982 -0.59642434
1.4208906 0.46184736 -0.6011501
1.4145951 0.44982526 -0.59929341
1.4135015 0.43950382 -0.59963131
1.4124078 0.42918238 -0.59996921
1.411314 0.41886088 -0.60030711
1.4050385 0.40702811 -0.59844428
1.4039488 0.39674452 -0.59878093
1.4028591 0.38646093 -0.59911758
1.4069393 0.37757495 -0.60165864
1.4058455 0.36725348 -0.60199654
1.393396 0.35402369 -0.59747916
1.3871533 0.34250149 -0.59560621
1.3860724 0.33230117 -0.59594011
1.3901414 0.32330915 -0.59848464
1.3952312 0.31447557 -0.60147417
1.3879716 0.30283284 -0.59915495
1.3868867 0.29259464 -0.59949017
1.380668 0.28129956 -0.59760976
1.3795872 0.27109924 -0.59794366
1.3752637 0.23029795 -0.5992794
1.3679963 0.20910542 -0.59772283
1.3556962 0.19728416 -0.59315938
1.3687786 0.16909605 -0.60128295
1.362612 0.15829314 -0.59938627
0.59401208 -0.081322126 -0.27419686
0.59253913 -0.085743874 -0.27389157
1.4525311 0.37819055 0.55350727
1.1476163 -0.92761034 0.44243488
1.1455765 -0.93736583 0.44177076
1.1479174 -0.950692 0.44278765
1.1502428 -0.96409255 0.4437995
1.1525526 -0.97756743 0.44480625
1.1548469 -0.9911167 0.44580796
1.1571256 -1.0047405 0.44680458
1.1502815 -0.96341705 0.43375751
1.1482263 -0.97324693 0.43308833
1.146171 -0.98307687 0.43241912
1.1571648 -1.0040573 0.43664861
1.1526304 -0.97621125 0.42464623
1.1505673 -0.98607832 0.42397451
1.1528541 -0.99965984 0.4248977
1.1549641 -0.98907483 0.41545394
1.1572433 -1.0026909 0.41633657
1.1550032 -0.9883942 0.40533593
1.1529323 -0.99829859 0.40466169
1.1574001 -0.99995816 0.37571245
1.2160212 -1.0280269 0.085181944
1.2204174 -1.0309348 0.074788786
1.2257264 -1.0338396 0.053623546
1.2257679 -1.0331169 0.042882185
1.2377007 -1.0043286 0.023645399
1.2416153 -1.0432116 -8.8634377e-05
1.2468846 -1.046805 -0.011014229
1.2521544 -1.0503924 -0.022031045
1.2521967 -1.0496545 -0.033000458
1.2522391 -1.0489166 -0.043969873
1.2522814 -1.0481787 -0.054939285
1.2575521 -1.0517507 -0.066184156
1.2680515 -1.0596231 -0.077841319
1.2733231 -1.0631799 -0.089314252
1.2733661 -1.0624298 -0.10046611
1.2734091 -1.0616796 -0.11161796
1.2786813 -1.0652239 -0.12327332
1.2787246 -1.0644706 -0.13447081
1.2848688 -1.0687205 -0.14636211
1.2902697 -1.0081592 -0.15313479
1.2901418 -1.0722492 -0.15825315
1.2954154 -1.0757713 -0.1702354
1.2954592 -1.0750084 -0.1815773
1.3016049 -1.0792344 -0.19382592
1.3498069 -0.94576854 -0.19796024
1.3474436 -0.95707184 -0.19872974
1.3016489 -1.0784678 -0.20522101
1.3133539 -1.0219289 -0.21281934
1.3040251 -1.0665468 -0.21585678
1.3016928 -1.0777012 -0.21661614
1.3154227 -1.0749286 -0.22922568
1.3078395 -1.0819128 -0.22907761
1.3215806 -1.0790777 -0.24183562
1.3131146 -1.0854065 -0.24148554
1.3216252 -1.078301 -0.25338274
1.3192618 -1.0896043 -0.25415221
1.3216698 -1.0775242 -0.26492992
1.3193064 -1.0888275 -0.26569939
1.3269552 -1.0809575 -0.27757046
1.3245825 -1.0923055 -0.27834299
1.3317454 -1.0574816 -0.28761816
1.327 -1.0801777 -0.28916323
1.3246273 -1.0915257 -0.28993577
1.4529853 -0.61365128 -0.27324226
1.3829144 -0.94878399 -0.29605702
1.3718474 -0.96756506 -0.29628736
1.3756657 -0.9834528 -0.29841715
1.3670367 -0.99057347 -0.29785371
1.3498443 -1.0045021 -0.29670551
1.3294173 -1.0680498 -0.29998347
1.3270447 -1.0793978 -0.30075601
1.3307757 -1.0957023 -0.30291414
1.5563821 -0.18684578 -0.2582497
1.5609086 -0.19934429 -0.2602022
1.551506 -0.21016674 -0.25983733
1.549068 -0.22182722 -0.26063114
1.541754 -0.25680867 -0.26301256
1.5393159 -0.26846915 -0.26380637
1.4637372 -0.62994391 -0.28841439
1.423125 -0.68759549 -0.28793249
1.4288684 -0.72842008 -0.29291502
1.4264523 -0.73997647 -0.29370174
1.3975606 -0.77571803 -0.29282996
1.3943915 -0.82502103 -0.29728797
1.3761084 -0.87831831 -0.29981464
1.3781275 -0.97110242 -0.30943602
1.3757112 -0.98265868 -0.31022274
1.3355879 -1.0721189 -0.31300795
1.3332043 -1.0835189 -0.31378403
1.3369246 -1.0998719 -0.31599894
1.3839649 -0.90846288 -0.31587633
1.3417586 -1.0761807 -0.32613891
1.3454794 -1.0925303 -0.32840702
1.3430741 -1.1040344 -0.32919019
1.3941622 -0.92740136 -0.33138892
1.3917351 -0.93900973 -0.33217919
1.3465927 -1.0524894 -0.33627883
1.3441982 -1.0639416 -0.33705842
1.34793 -1.0802355 -0.33937624
1.35164 -1.0966334 -0.34170112
1.3431194 -1.1032438 -0.34094259
1.3917809 -0.93821198 -0.34403801
1.3893538 -0.94982034 -0.34482825
1.3907347 -0.97735435 -0.3479647
1.3882966 -0.98901486 -0.34875852
1.3503808 -1.0679406 -0.35034552
1.3541019 -1.084283 -0.35271999
1.3516856 -1.0958393 -0.35350671
1.3431648 -1.1024532 -0.35269502
1.4043629 -0.94572908 -0.35909382
1.3956567 -0.95323205 -0.35828912
1.3932188 -0.96489257 -0.35908291
1.3907807 -0.97655302 -0.35987672
1.3638123 -1.0372636 -0.36137879
1.3613962 -1.0488199 -0.36216551
1.3589799 -1.0603763 -0.36295223
1.3565637 -1.0719326 -0.36373892
1.3541474 -1.0834888 -0.36452565
1.3517312 -1.0950451 -0.36531237
1.3493149 -1.1066014 -0.36609909
1.7658905 0.60353434 -0.27288088
1.7169836 0.47690141 -0.27719927
0.80046403 -0.53710383 -0.21109639
1.4082177 -0.96084261 -0.3735117
1.3995113 -0.96834928 -0.37265381
1.3908267 -0.9757517 -0.3717888
1.3883886 -0.98741221 -0.37258261
1.3797368 -0.99465841 -0.37170696
1.3835126 -1.0107331 -0.37417021
1.3724555 -1.0294837 -0.37407777
1.3700284 -1.041092 -0.37486801
1.3676012 -1.0527005 -0.37565827
1.3651741 -1.0643089 -0.37644854
1.3541931 -1.0826946 -0.37633124
1.3517768 -1.0942509 -0.37711796
1.3493606 -1.1058072 -0.37790468
1.4058043 -0.97179872 -0.38633105
1.3971086 -0.97925699 -0.38541639
1.3946596 -0.99096954 -0.38621372
1.3922107 -1.0026822 -0.38701108
1.3725013 -1.0286859 -0.38593659
1.3799661 -1.061245 -0.39099786
1.3664925 -1.0915551 -0.3916389
1.3579384 -1.0983363 -0.39067814
1.3494061 -1.105013 -0.38971028
1.4033908 -0.98275501 -0.39915037
1.400931 -0.99451965 -0.39995128
1.3787285 -1.0324514 -0.39958188
1.3665384 -1.0907538 -0.40355092
1.3579842 -1.0975386 -0.40253693
1.3555571 -1.109147 -0.4033272
1.4009775 -0.99371117 -0.41196978
1.3923032 -1.0010724 -0.4109416
1.3690225 -1.0782921 -0.41466916
1.3665844 -1.0899525 -0.41546297
1.370263 -1.1064855 -0.41811779
1.3678141 -1.118198 -0.41891512
1.6998445 0.17792338 -0.35626593
1.6973022 0.16576436 -0.35709369
1.3923494 -1.0002675 -0.42290685
1.3961042 -1.0164319 -0.42559004
1.3936445 -1.0281966 -0.42639095
1.3752069 -1.0822554 -0.42848831
1.372758 -1.093968 -0.42928568
1.3703091 -1.1056806 -0.43008304
1.3678602 -1.1173931 -0.4308804
1.7151462 0.25171322 -0.36372086
1.403241 -1.0207074 -0.43982455
1.4007689 -1.0325316 -0.44062951
1.3752532 -1.0814505 -0.44045356
1.3728043 -1.0931631 -0.44125092
1.3764722 -1.1097406 -0.44401571
1.3740124 -1.1215054 -0.44481662
1.3912776 -1.0383443 -0.45122877
1.3704015 -1.1040708 -0.45401356
1.3740588 -1.1206969 -0.45683506
1.715242 0.25338435 -0.38856354
1.3851413 -1.0329905 -0.46119466
1.3826923 -1.044703 -0.46199203
1.3704478 -1.1032659 -0.4659788
1.3741052 -1.1198884 -0.4688535
1.3827386 -1.0438981 -0.47395727
1.3802897 -1.0556107 -0.47475463
1.370494 -1.102461 -0.47794405
1.3680451 -1.1141735 -0.47874138
1.3864971 -1.0594482 -0.48888591
1.3778869 -1.0665184 -0.48751721
1.3692986 -1.0734843 -0.48614138
1.3705401 -1.1016561 -0.48990929
1.3680912 -1.1133686 -0.49070665
1.6485589 0.048341386 -0.43370256
1.3865435 -1.0586398 -0.50090444
1.3840836 -1.0704045 -0.50170535
1.3754842 -1.077426 -0.50027984
1.3730353 -1.0891386 -0.50107723
1.3705864 -1.1008512 -0.50187457
1.3681375 -1.1125637 -0.5026719
0.6347177 -0.47353458 -0.23327959
1.38659 -1.0578313 -0.51292288
1.3841301 -1.0695961 -0.51372379
1.3816704 -1.0813607 -0.5145247
1.3792106 -1.0931253 -0.51532561
1.3706326 -1.1000463 -0.51383978
1.3742909 -1.1166546 -0.51692736
1.7994474 0.62504631 -0.42766359
0.67190635 -0.50001764 -0.25266618
0.66894931 -0.50441658 -0.25239125
1.3817167 -1.0805522 -0.52654314
1.379257 -1.0923169 -0.52734405
1.3706788 -1.0992414 -0.52580506
1.3813174 -1.1214371 -0.53162408
1.3817631 -1.0797437 -0.53856164
1.3793033 -1.0915084 -0.53936255
1.370725 -1.0984366 -0.53777033
1.381364 -1.1206245 -0.54370338
1.3863552 -1.0961637 -0.55417269
1.3768901 -1.1024644 -0.5521819
1.3875185 -1.1246971 -0.55823255
1.3900485 -1.1120048 -0.56955653
1.3814573 -1.1189994 -0.56786186
1.8146582 0.62230617 -0.48306093
1.8069241 0.58531564 -0.4855791
1.8017681 0.56065524 -0.4872579
1.3815039 -1.1181868 -0.57994121
1.7996883 0.62924206 -0.49003652
1.8147068 0.62315351 -0.49565718
1.8033553 0.60782152 -0.4940978
1.7920288 0.59260863 -0.49253038
1.7843693 0.55597532 -0.49502426
1.7492194 0.49987 -0.49135989
1.7341101 0.46169648 -0.49168089
1.7744405 0.62109721 -0.49546313
1.7719232 0.60905725 -0.49628279
1.7694058 0.59701723 -0.49710241
1.7668884 0.58497727 -0.49792206
1.764371 0.57293731 -0.49874172
1.7618537 0.56089729 -0.49956134
1.7593362 0.54885727 -0.50038099
1.7543015 0.52477735 -0.5020203
1.7441834 0.51047182 -0.5006631
1.7330028 0.49595439 -0.49898717
1.7391704 0.48649606 -0.50229526
1.7442321 0.4766174 -0.50529885
1.7255207 0.46016929 -0.50142336
1.7154804 0.4462359 -0.50004071
1.6506997 0.1023184 -0.52578467
1.7667891 0.61918676 -0.50556469
1.7642826 0.60719883 -0.5063808
1.7617761 0.59521091 -0.5071969
1.7505082 0.58027267 -0.50548863
1.7480141 0.56834424 -0.50630069
1.740532 0.53255916 -0.50873685
1.7467372 0.5232836 -0.51209348
1.7279431 0.50643343 -0.50813073
1.7178699 0.49234015 -0.50670558
1.7153976 0.48051602 -0.50751054
1.7204937 0.47080457 -0.51055622
1.7018161 0.45451248 -0.5065555
1.7426391 0.61139464 -0.51073533
1.7313801 0.59649688 -0.50896323
1.7135656 0.57945758 -0.505247
1.7264606 0.57296753 -0.51056498
1.7240008 0.56120288 -0.51136589
1.7190812 0.53767353 -0.51296771
1.7329562 0.53100216 -0.51864624
1.7228612 0.51680112 -0.51717496
1.7117018 0.5023796 -0.51537043
1.709242 0.49061495 -0.51617128
1.6992028 0.4766818 -0.51468176
1.7043223 0.46708566 -0.51777309
1.7184876 0.60357994 -0.51557142
1.7160497 0.59191948 -0.51636523
1.6986526 0.54279304 -0.51721805
1.7038596 0.53361708 -0.5203343
1.7090447 0.52433705 -0.52345759
1.6989834 0.51029611 -0.52192193
1.7031345 0.59888405 -0.52276772
1.7007183 0.58732778 -0.52355444
1.6934695 0.55265886 -0.52591461
1.6834083 0.53861439 -0.52432573
1.6581002 0.51980197 -0.51797158
1.6789721 0.48332107 -0.53063488
1.6665708 0.45808494 -0.52980793
1.6877805 0.59417385 -0.52975124
1.6853861 0.58272177 -0.53053087
1.6753136 0.56862152 -0.52889234
1.6652629 0.55462569 -0.52724665
1.6586287 0.48882136 -0.53432482
1.6562451 0.47742131 -0.53510094
1.6462816 0.46384209 -0.53342694
1.6515257 0.58196932 -0.52983308
1.6634624 0.57578385 -0.53517914
1.6534209 0.56182903 -0.53347725
1.6393062 0.49432176 -0.53807288
1.6346012 0.4718194 -0.53960478
1.6322489 0.46056813 -0.54037076
1.6230125 0.57324737 -0.54318148
1.6044276 0.57736677 -0.54656994
1.5112734 0.13237405 -0.58802062
1.4522609 0.13773726 -0.57420832
1.5427232 0.45901906 -0.57281023
1.4191679 0.14641061 -0.59077972
1.4845868 0.53762549 -0.56743288
1.4025499 0.14526197 -0.59414375
1.1644839 -0.83984751 0.45086837
1.1613667 -0.84966242 0.4498665
1.1375774 -0.90460968 0.44189003
1.1395459 -0.91836679 0.44285345
1.1364286 -0.92818177 0.44185159
1.1333114 -0.93799663 0.44084972
1.1343862 -0.95124125 0.44147086
1.1312575 -0.96109235 0.4404653
1.1239597 -0.96744144 0.43784413
1.125 -0.98079449 0.43845421
1.1218714 -0.99064547 0.43744865
1.1187426 -1.0004965 0.43644309
1.1156138 -1.0103476 0.43543753
1.1124852 -1.0201987 0.43443197
1.1093564 -1.0300497 0.43342644
1.1152231 -1.0481617 0.43591836
1.1120691 -1.0580924 0.43490469
1.112981 -1.0718501 0.43547344
1.1008958 -1.0733173 0.43098289
1.1026071 -1.0878839 0.43186367
1.1034845 -1.1017503 0.43242136
1.1003191 -1.1117169 0.43140399
1.0971537 -1.1216836 0.43038666
1.0987847 -1.1365033 0.43124166
1.1043735 -1.1554898 0.43364435
1.101169 -1.1655793 0.43261445
1.1027197 -1.1806519 0.43344361
1.1081938 -1.1999999 0.4358094
1.1144053 -1.2203517 0.43846735
1.1282536 -0.96992815 0.42912549
1.1251248 -0.97977924 0.42811996
1.1219962 -0.98963022 0.4271144
1.1188674 -0.99948132 0.42610884
1.1198623 -1.0129752 0.4266662
1.1216568 -1.0272772 0.42752805
1.1185029 -1.0372078 0.42651439
1.1153488 -1.0471383 0.42550072
1.1121949 -1.0570689 0.42448705
1.1041613 -1.0624112 0.42161995
1.1010211 -1.0722984 0.42061073
1.1027329 -1.0868605 0.42144603
1.1036108 -1.1007231 0.42196587
1.1052699 -1.1154515 0.42278415
1.0972799 -1.1206565 0.41993117
1.102909 -1.1395121 0.42226297
1.1045012 -1.1544499 0.42305988
1.1012968 -1.1645395 0.42202997
1.1028481 -1.1796076 0.42281365
1.1083232 -1.1989474 0.42509606
1.1098077 -1.2142251 0.42585829
1.1252496 -0.978764 0.41778564
1.122121 -0.98861498 0.41678011
1.1231278 -1.0020691 0.41730329
1.1249367 -1.0163233 0.41812405
1.1217827 -1.0262538 0.41711038
1.1186287 -1.0361844 0.41609672
1.1195644 -1.0498624 0.41659707
1.1163989 -1.0598292 0.41557971
1.1091667 -1.0659761 0.41305572
1.1060128 -1.0759066 0.41204202
1.1069026 -1.0897292 0.41252762
1.1037371 -1.0996959 0.41151026
1.1053967 -1.1144198 0.41228306
1.1022176 -1.1244299 0.41126129
1.1030363 -1.1384767 0.41172397
1.1046292 -1.1534102 0.41247547
1.1014247 -1.1634997 0.41144556
1.0982202 -1.1735893 0.41041565
1.1084526 -1.1978949 0.41438267
1.1099378 -1.2131681 0.41509941
1.1323525 -1.0089685 0.41021088
1.1201129 -1.0109373 0.40592188
1.1260216 -1.0289021 0.40817615
1.1228561 -1.0388687 0.40715879
1.1196907 -1.0488353 0.40614146
1.1165252 -1.0588021 0.4051241
1.1092925 -1.0649527 0.40263805
1.1101943 -1.0787354 0.40308937
1.1070288 -1.0887021 0.40207201
1.1087029 -1.1033782 0.40280384
1.1055236 -1.1133882 0.40178204
1.1023444 -1.1233983 0.40076026
1.0991652 -1.1334084 0.39973846
1.0999728 -1.1474875 0.40015957
1.1015525 -1.1624599 0.40086102
1.1031048 -1.177519 0.40155369
1.108582 -1.1968424 0.40366933
1.1100677 -1.2121111 0.40434054
1.1283423 -1.0043458 0.39830241
1.1293135 -1.0179081 0.39873794
1.1310843 -1.0322763 0.39945525
1.1279051 -1.0422863 0.39843345
1.119817 -1.0478082 0.39568588
1.1166515 -1.0577749 0.39466852
1.1094184 -1.0639292 0.39222041
1.1103207 -1.0777082 0.3926338
1.1071552 -1.087675 0.39161643
1.1088297 -1.1023465 0.39230275
1.1056504 -1.1123565 0.39128095
1.1064816 -1.1263598 0.39167148
1.1032909 -1.1364061 0.39064601
1.1048847 -1.1513306 0.39130652
1.1064515 -1.1663418 0.39195806
1.1032332 -1.1764747 0.39092374
1.1039679 -1.1907815 0.3912833
1.1101977 -1.2110542 0.39358175
1.1326051 -1.0069143 0.38929972
1.1294397 -1.016881 0.38828236
1.1262742 -1.0268477 0.387265
1.1231087 -1.0368143 0.38624763
1.1248527 -1.0512648 0.38691062
1.1216735 -1.0612748 0.38588881
1.1136124 -1.0667143 0.38319558
1.1104469 -1.076681 0.38217822
1.1072814 -1.0866477 0.38116086
1.104116 -1.0966145 0.38014349
1.1097996 -1.1152784 0.38215798
1.1114217 -1.1301116 0.38278177
1.1034182 -1.1353707 0.38010705
1.1050127 -1.1502907 0.38072199
1.1065799 -1.1652975 0.38132811
1.1033616 -1.1754304 0.38029379
1.1040968 -1.1897334 0.38061544
1.1055973 -1.20495 0.38120016
1.1327313 -1.005887 0.37884417
1.129566 -1.0158538 0.37782681
1.131338 -1.030213 0.37845314
1.1281588 -1.040223 0.37743133
1.1249795 -1.0502331 0.37640953
1.1258805 -1.0640119 0.37674642
1.1186211 -1.0702533 0.37436599
1.1154418 -1.0802633 0.37334418
1.1122626 -1.0902734 0.37232241
1.1090834 -1.1002834 0.37130064
1.1099269 -1.114243 0.37161902
1.1115495 -1.1290717 0.37219733
1.1083449 -1.1391613 0.37116742
1.1051404 -1.1492509 0.37013751
1.1067083 -1.1642532 0.37069815
1.1074554 -1.1785164 0.37098557
1.1089702 -1.1936851 0.37152925
1.1057266 -1.2038975 0.37048683
1.1378233 -1.0091612 0.36999556
1.134644 -1.0191712 0.36897379
1.1314648 -1.0291814 0.36795199
1.1282856 -1.0391914 0.36693022
1.1291983 -1.0529304 0.36723292
1.1260077 -1.0629765 0.36620742
1.1228169 -1.0730227 0.36518195
1.1196263 -1.0830688 0.36415648
1.1123894 -1.0892417 0.36182129
1.1132448 -1.1031613 0.36210555
1.1148819 -1.1179423 0.36264277
1.1116774 -1.128032 0.36161286
1.1084728 -1.1381216 0.36058295
1.110055 -1.1530761 0.36110252
1.1068367 -1.163209 0.3600682
1.1075842 -1.1774684 0.36031771
1.1090996 -1.1926326 0.36081588
1.1420885 -1.0117102 0.36079577
1.1388978 -1.0217564 0.3597703
1.1315917 -1.0281497 0.35745096
1.1325164 -1.0418488 0.35771936
1.1252332 -1.0481699 0.35540742
1.131032 -1.0664548 0.3572078
1.1278275 -1.0765443 0.35617793
1.1246231 -1.0866338 0.35514802
1.1165628 -1.0920798 0.35259199
1.1182141 -1.106813 0.3530882
1.1150097 -1.1169025 0.35205829
1.1166198 -1.131766 0.35254121
1.1134015 -1.1418989 0.35150689
1.1101834 -1.1520318 0.35047257
1.1069651 -1.1621647 0.34943825
1.107713 -1.1764203 0.34964985
1.109229 -1.1915801 0.35010254
1.152149 -1.0192595 0.35328883
1.1439779 -1.0250567 0.35074291
1.1407734 -1.0351462 0.349713
1.137569 -1.0452359 0.34868312
1.1343645 -1.0553254 0.34765321
1.1311599 -1.065415 0.3466233
1.1230716 -1.0709521 0.34410396
1.1198809 -1.0809982 0.34307849
1.1215465 -1.0956837 0.34353361
1.118342 -1.1057732 0.34250373
1.1199665 -1.1205887 0.34294558
1.1167482 -1.1307217 0.34191123
1.1087285 -1.136042 0.339414
1.1103117 -1.1509875 0.33984259
1.1070935 -1.1611204 0.33880824
1.1038752 -1.1712533 0.33777392
1.1093584 -1.1905276 0.33938915
1.1473101 -1.0139273 0.34118831
1.1490591 -1.0283482 0.34162456
1.1458409 -1.0384811 0.34059024
1.1426226 -1.048614 0.33955592
1.1394043 -1.0587469 0.3385216
1.1361861 -1.0688798 0.33748728
1.1280832 -1.0744647 0.33500892
1.1248788 -1.0845542 0.33397901
1.1216743 -1.0946438 0.33294913
1.1184698 -1.1047333 0.33191925
1.1200949 -1.1195444 0.33231562
1.1168766 -1.1296774 0.3312813
1.1088563 -1.1350021 0.32882953
1.1104401 -1.1499432 0.32921267
1.1159748 -1.1690503 0.33076069
1.1127312 -1.1792628 0.32971826
1.1142347 -1.1944567 0.33007547
1.1524059 -1.0171709 0.33202893
1.1491876 -1.0273039 0.33099461
1.1459694 -1.0374368 0.32996029
1.1427511 -1.0475698 0.32892597
1.1395328 -1.0577027 0.32789165
1.1363146 -1.0678356 0.32685733
1.1330963 -1.0779685 0.32582298
1.129878 -1.0881014 0.32478866
1.1218022 -1.093604 0.32236469
1.1234416 -1.1083672 0.32272002
1.1202234 -1.1185001 0.32168567
1.1210185 -1.1326001 0.32179829
1.1137868 -1.1387661 0.31961703
1.1145591 -1.1529381 0.31972224
1.1208792 -1.1728882 0.32141036
1.1176219 -1.183144 0.32036349
1.1191119 -1.198377 0.32067084
1.1566744 -1.0196924 0.32254857
1.1534446 -1.0298615 0.32151055
1.1460978 -1.0363926 0.3193303
1.1428795 -1.0465255 0.31829599
1.1396612 -1.0566584 0.31726167
1.136443 -1.0667913 0.31622732
1.1332247 -1.0769242 0.315193
1.1300064 -1.0870571 0.31415868
1.1267883 -1.0971901 0.31312436
1.12357 -1.1073229 0.31209004
1.1203518 -1.1174558 0.31105572
1.1211474 -1.1315521 0.31113043
1.1179177 -1.1417211 0.31009239
1.1194772 -1.1567329 0.31037641
1.1210091 -1.1718313 0.31065148
1.1177518 -1.1820871 0.30960461
1.1192423 -1.1973156 0.30986652
1.1568033 -1.0186445 0.31188071
1.1535735 -1.0288135 0.31084269
1.1503439 -1.0389825 0.30980471
1.147114 -1.0491515 0.30876669
1.1438844 -1.0593207 0.30772868
1.1406547 -1.0694897 0.30669066
1.1333531 -1.0758799 0.30456305
1.1301348 -1.0860128 0.30352873
1.1269166 -1.0961459 0.30249441
1.1236984 -1.1062787 0.30146009
1.1204802 -1.1164116 0.30042577
1.1212763 -1.1305041 0.30046257
1.1228501 -1.1454679 0.30070549
1.1196065 -1.1556804 0.29966304
1.121139 -1.1707743 0.29989266
1.1178818 -1.1810302 0.2988458
1.1146245 -1.191286 0.29779893
1.1619015 -1.0218663 0.30250141
1.1537024 -1.0277654 0.30017483
1.1554146 -1.0422913 0.30041653
1.152171 -1.0525036 0.29937407
1.1489276 -1.062716 0.29833165
1.145684 -1.0729284 0.29728919
1.1375538 -1.0786108 0.29498476
1.1343241 -1.0887798 0.29394674
1.1310943 -1.0989488 0.29290873
1.1278646 -1.1091179 0.29187071
1.1246349 -1.119287 0.2908327
1.1214051 -1.129456 0.28979468
1.1277835 -1.1492057 0.29122758
1.1245263 -1.1594615 0.29018068
1.121269 -1.1697173 0.28913385
1.1180117 -1.1799731 0.28808695
1.1195034 -1.1951927 0.28825778
1.1620308 -1.0208139 0.29178804
1.1587874 -1.0310264 0.29074559
1.1555439 -1.0412389 0.28970313
1.1572289 -1.0558468 0.2898905
1.1539717 -1.0661025 0.28884363
1.1507144 -1.0763583 0.28779674
1.1425699 -1.0820885 0.28553337
1.1393263 -1.092301 0.28449094
1.1312232 -1.0979009 0.28224081
1.1328393 -1.1127257 0.28240606
1.1247637 -1.118239 0.28016478
1.121534 -1.1284081 0.27912679
1.1279135 -1.1481488 0.2804687
1.1246562 -1.1584046 0.27942181
1.1213989 -1.1686604 0.27837497
1.1181417 -1.1789162 0.27732807
1.1196339 -1.1941313 0.27745345
1.1671308 -1.0240225 0.28227225
1.1638736 -1.0342783 0.28122538
1.1655591 -1.0488819 0.28136721
1.157359 -1.0547899 0.27913165
1.159017 -1.0694802 0.27926463
1.1557459 -1.0797794 0.27821332
1.1475872 -1.0855572 0.27599105
1.1443299 -1.095813 0.27494419
1.1410726 -1.1060687 0.27389729
1.1378154 -1.1163245 0.27285045
1.1345581 -1.1265804 0.27180356
1.1313008 -1.1368362 0.27075672
1.1280435 -1.1470919 0.26970983
1.1247863 -1.1573477 0.26866299
1.1263064 -1.1724716 0.26875168
1.1230354 -1.1827708 0.26770037
1.1197643 -1.1930699 0.2666491
1.1722317 -1.027222 0.27266547
1.1689606 -1.0375212 0.27161419
1.1656896 -1.0478204 0.27056289
1.1624185 -1.0581195 0.26951158
1.1591475 -1.0684187 0.2684603
1.1558764 -1.0787179 0.267409
1.1477171 -1.0845002 0.26523221
1.1444598 -1.094756 0.26418531
1.1412026 -1.1050117 0.26313847
1.1379453 -1.1152675 0.26209158
1.134688 -1.1255233 0.26104474
1.1362501 -1.1405128 0.26110125
1.132979 -1.1508119 0.26004994
1.1297081 -1.1611111 0.25899863
1.1264369 -1.1714102 0.25794736
1.1279305 -1.1866164 0.25798172
1.1293962 -1.2019093 0.25800729
1.1723622 -1.0261606 0.26186112
1.1690911 -1.0364598 0.26080984
1.1707642 -1.0510978 0.26085627
1.1674794 -1.0614403 0.25980055
1.159278 -1.0673573 0.25765595
1.1560069 -1.0776565 0.25660464
1.1527359 -1.0879556 0.25555336
1.1494648 -1.0982548 0.25450206
1.1461939 -1.1085539 0.25345075
1.1429228 -1.1188531 0.25239947
1.1396517 -1.1291522 0.25134817
1.1363807 -1.1394514 0.25029689
1.1331096 -1.1497505 0.2492456
1.1298386 -1.1600497 0.24819431
1.1313463 -1.1752081 0.24818763
1.1280615 -1.1855506 0.24713191
1.1295278 -1.2008389 0.24711195
1.1807497 -1.0190043 0.25317359
1.1774648 -1.0293469 0.25211787
1.17418 -1.0396894 0.25106215
1.1708952 -1.0500319 0.25000644
1.1676104 -1.0603745 0.24895073
1.1643256 -1.070717 0.24789502
1.1610408 -1.0810596 0.24683928
1.1528665 -1.0868942 0.24474901
1.1495954 -1.0971934 0.24369772
1.1463244 -1.1074924 0.24264643
1.1430533 -1.1177917 0.24159513
1.1397822 -1.1280907 0.24054383
1.1365112 -1.1383899 0.23949255
1.138047 -1.1534572 0.23944925
1.1347622 -1.1637996 0.23839353
1.1362567 -1.1789968 0.23833691
1.1281925 -1.1844847 0.23628208
1.1296594 -1.1997685 0.2362166
1.177596 -1.0282811 0.24126805
1.1743112 -1.0386236 0.24021234
1.1710263 -1.0489661 0.23915662
1.1677415 -1.0593086 0.2381009
1.1693742 -1.0740677 0.23804308
1.1660756 -1.0844536 0.23698294
1.1578871 -1.0903362 0.23493375
1.1497258 -1.096132 0.23289336
1.1464548 -1.1064311 0.23184207
1.1480325 -1.1213638 0.23176658
1.1447477 -1.1317062 0.23071085
1.1462841 -1.1467689 0.23062207
1.1429855 -1.1571547 0.22956191
1.1396868 -1.1675407 0.22850175
1.1316085 -1.1730764 0.22648796
1.1283237 -1.1834189 0.22543225
1.1345433 -1.2036353 0.22626607
1.1859988 -1.0210679 0.23244849
1.177727 -1.0272151 0.23041819
1.1794016 -1.0418397 0.23032819
1.1810486 -1.056551 0.23022929
1.1678725 -1.0582427 0.22725104
1.1695058 -1.0729973 0.22714774
1.1711116 -1.0878386 0.22703557
1.1580181 -1.0892702 0.22408389
1.15961 -1.1041549 0.2239673
1.1563115 -1.1145408 0.22290717
1.1530129 -1.1249267 0.22184701
1.1497142 -1.1353126 0.22078685
1.1512374 -1.1504142 0.22064812
1.147925 -1.1608434 0.21958356
1.1398184 -1.1664703 0.21760641
1.1365199 -1.1768562 0.21654628
1.1332213 -1.187242 0.21548612
1.1346755 -1.2025604 0.21532525
1.1911179 -1.0241884 0.22248222
1.1878055 -1.0346177 0.22141765
1.1844931 -1.0450469 0.22035307
1.1861271 -1.059797 0.22020423
1.182801 -1.0702698 0.21913522
1.174556 -1.0763346 0.21715935
1.1712437 -1.0867639 0.21609478
1.1630403 -1.0926987 0.21413215
1.164619 -1.1076224 0.21396564
1.1613065 -1.1180516 0.21290106
1.1579942 -1.1284808 0.21183647
1.1546818 -1.1389102 0.2107719
1.1513695 -1.1493394 0.20970733
1.1480571 -1.1597686 0.20864277
1.1447448 -1.1701978 0.20757818
1.1414324 -1.1806271 0.20651361
1.1428872 -1.1959411 0.20630723
1.1348076 -1.2014856 0.20438446
1.1879377 -1.0335429 0.21047683
1.1895859 -1.0482452 0.21028693
1.1862597 -1.0587177 0.20921794
1.1829337 -1.0691905 0.20814893
1.1796075 -1.079663 0.20707993
1.1762813 -1.0901356 0.20601094
1.1680634 -1.0961185 0.20408937
1.1696291 -1.1110809 0.20387293
1.1663029 -1.1215534 0.20280394
1.1629767 -1.1320262 0.20173493
1.154814 -1.1378354 0.19983108
1.1515017 -1.1482646 0.19876651
1.1529983 -1.1634439 0.19852793
1.1496723 -1.1739166 0.19745894
1.1463461 -1.1843891 0.19638993
1.1430199 -1.1948618 0.19532093
1.1349398 -1.2004108 0.19344364
1.196371 -1.0262207 0.20143861
1.1930448 -1.0366933 0.20036961
1.1897186 -1.047166 0.1993006
1.1863924 -1.0576385 0.19823161
1.1830664 -1.0681113 0.1971626
1.1797402 -1.0785838 0.1960936
1.176414 -1.0890564 0.19502461
1.1681956 -1.0950437 0.19314852
1.1648834 -1.1054728 0.19208397
1.1664356 -1.1204742 0.19181761
1.1631094 -1.130947 0.1907486
1.1597834 -1.1414195 0.18967961
1.1564572 -1.1518921 0.1886106
1.153131 -1.1623647 0.1875416
1.1498049 -1.1728374 0.18647261
1.1464788 -1.1833099 0.1854036
1.1431526 -1.1937826 0.18433461
1.1445808 -1.2091743 0.18402839
1.1931775 -1.035614 0.18938331
1.1948129 -1.0503507 0.18909802
1.191473 -1.0608667 0.1880246
1.188133 -1.0713826 0.18695116
1.1798729 -1.0775045 0.18510731
1.1765467 -1.0879771 0.18403831
1.1732206 -1.0984497 0.18296932
1.1698945 -1.1089224 0.18190031
1.1665683 -1.1193949 0.18083131
1.1632421 -1.1298677 0.1797623
1.159916 -1.1403402 0.17869331
1.1614137 -1.1555105 0.17836374
1.1532637 -1.1612854 0.17655531
1.1499376 -1.1717581 0.17548631
1.1466115 -1.1822306 0.1744173
1.1480541 -1.1975744 0.17407005
1.1494693 -1.2130051 0.17371394
1.1982861 -1.038751 0.1791396
1.1949462 -1.0492669 0.17806618
1.1916063 -1.059783 0.17699276
1.1882663 -1.0702989 0.17591932
1.1898474 -1.0852047 0.17557089
1.1864936 -1.095764 0.17449304
1.1782466 -1.1018469 0.17269905
1.1700273 -1.107843 0.17091398
1.1667011 -1.1183156 0.16984499
1.1682268 -1.1333948 0.16947876
1.1600488 -1.1392609 0.16770698
1.1567227 -1.1497334 0.16663797
1.1533965 -1.1602061 0.16556898
1.1500704 -1.1706787 0.16449998
1.1515273 -1.1859747 0.16411163
1.1529568 -1.2013575 0.16371451
1.1496031 -1.2119168 0.16263665
1.2017591 -1.0271513 0.16918124
1.1984192 -1.0376673 0.16810782
1.2000422 -1.0524384 0.16772711
1.1966885 -1.0629979 0.16664927
1.1883994 -1.0692152 0.16488755
1.1899811 -1.0841166 0.16449355
1.1915351 -1.0991045 0.16409077
1.1734861 -1.0962911 0.16099669
1.1750399 -1.1112791 0.16059384
1.1716999 -1.1217951 0.15952042
1.1635076 -1.127709 0.15778968
1.1601815 -1.1381816 0.15672068
1.1616801 -1.1533431 0.15630013
1.1583402 -1.163859 0.15522671
1.1597979 -1.1791507 0.15479288
1.1564443 -1.18971 0.15371501
1.1530906 -1.2002693 0.15263717
1.1497369 -1.2108287 0.15155931
1.2035296 -1.0407909 0.1577277
1.200176 -1.0513502 0.15664984
1.2017719 -1.0662038 0.15621482
1.1984043 -1.0768065 0.15513255
1.1851928 -1.0786475 0.15278231
1.1916695 -1.0980119 0.15296799
1.1834075 -1.104147 0.15126057
1.1800538 -1.1147063 0.15018272
1.1767001 -1.1252656 0.14910488
1.1733464 -1.135825 0.14802702
1.1699928 -1.1463844 0.14694916
1.1666391 -1.1569437 0.14587131
1.1680973 -1.1722308 0.14539203
1.1599317 -1.1780624 0.14371561
1.1613623 -1.1934363 0.14322747
1.1579949 -1.204039 0.1421452
1.1546274 -1.2146418 0.1410629
1.2086411 -1.0439057 0.14725657
1.2052736 -1.0545084 0.1461743
1.2068561 -1.0694007 0.14568934
1.2034749 -1.0800468 0.14460264
1.1951712 -1.0863166 0.14292745
1.1967125 -1.1013389 0.14242923
1.1884364 -1.107522 0.14076288
1.1850688 -1.1181247 0.13968061
1.1817014 -1.1287273 0.13859834
1.178334 -1.13933 0.13751604
1.1701267 -1.1452961 0.13587187
1.171599 -1.1605356 0.13535149
1.1730438 -1.1758614 0.13482228
1.1648642 -1.181741 0.13318692
1.1614966 -1.1923436 0.13210465
1.1581292 -1.2029463 0.13102238
1.1547618 -1.2135491 0.12994008
1.2087754 -1.0428129 0.13613379
1.2103723 -1.0576575 0.13560775
1.2069911 -1.0683036 0.13452104
1.2036098 -1.0789497 0.13343434
1.2002286 -1.0895957 0.13234763
1.1968474 -1.1002418 0.13126093
1.1934662 -1.1108879 0.13017422
1.1900849 -1.1215339 0.12908751
1.1867037 -1.13218 0.12800081
1.1784683 -1.1382372 0.12639327
1.1751008 -1.1488401 0.12531099
1.1717334 -1.1594428 0.1242287
1.168366 -1.1700454 0.12314643
1.1649985 -1.1806482 0.12206414
1.161631 -1.1912508 0.12098186
1.1582636 -1.2018535 0.11989959
1.1596538 -1.2173486 0.11930715
1.2138885 -1.0459142 0.12552617
1.2105073 -1.0565603 0.12443948
1.2129023 -1.0722004 0.12394349
1.2037448 -1.0778525 0.12226606
1.2003635 -1.0884985 0.12117936
1.1969824 -1.0991446 0.12009266
1.1936011 -1.1097907 0.11900595
1.1902199 -1.1204367 0.11791924
1.1868386 -1.1310828 0.11683254
1.1834574 -1.1417289 0.11574583
1.1800761 -1.152375 0.11465912
1.1766949 -1.1630211 0.1135724
1.1733137 -1.1736671 0.11248571
1.1699325 -1.1843132 0.11139899
1.1665512 -1.1949593 0.11031228
1.16317 -1.2056054 0.10922559
1.1653401 -1.2219537 0.10865731
1.2198324 -1.0497048 0.11490587
1.2106421 -1.0554631 0.11327119
1.2130378 -1.0710981 0.11272213
1.2096405 -1.0817949 0.11163025
1.2062432 -1.0924914 0.11053839
1.2028459 -1.1031882 0.10944652
1.193736 -1.1086935 0.10783766
1.1903547 -1.1193395 0.10675095
1.192654 -1.1352781 0.10617091
1.1835922 -1.1406317 0.10457754
1.1858594 -1.1566715 0.10398716
1.1768297 -1.1619239 0.10240412
1.1734486 -1.1725699 0.10131742
1.1756675 -1.1887615 0.10071155
1.1722702 -1.1994581 0.099619679
1.168873 -1.2101548 0.098527811
1.1654756 -1.2208514 0.097435944
1.2233652 -1.0379058 0.10477638
1.219968 -1.0486025 0.10368452
1.2165706 -1.0592991 0.10259265
1.2131734 -1.0699958 0.10150078
1.209776 -1.0806925 0.1004089
1.2113034 -1.0957476 0.099723555
1.2078923 -1.1064876 0.098627254
1.1995841 -1.1127825 0.097133294
1.2010702 -1.1279676 0.09643466
1.1976591 -1.1387076 0.095338367
1.1942481 -1.1494477 0.094242074
1.1908369 -1.1601877 0.093145773
1.1874259 -1.1709278 0.092049479
1.1792003 -1.1769625 0.090582073
1.1702023 -1.1821188 0.089062437
1.1724057 -1.1983558 0.08839833
1.1737816 -1.2138879 0.087664291
1.1703706 -1.224628 0.08656799
1.2235007 -1.0368034 0.093555033
1.2201035 -1.0475 0.092463173
1.2167062 -1.0581967 0.091371298
1.2133089 -1.0688933 0.09027943
1.2148507 -1.0839007 0.089553006
1.2163649 -1.0989947 0.088817708
1.2129401 -1.1097782 0.087716989
1.2046174 -1.1161208 0.086264119
1.2012063 -1.1268607 0.085167818
1.1977953 -1.1376008 0.084071524
1.1943842 -1.1483408 0.082975231
1.190973 -1.1590809 0.08187893
1.187562 -1.1698209 0.080782637
1.1841509 -1.1805609 0.079686336
1.1759386 -1.1865567 0.078268856
1.1773288 -1.202041 0.077493742
1.1786916 -1.2176121 0.076709747
1.1752667 -1.2283955 0.075609028
1.220239 -1.0463977 0.081241809
1.2218089 -1.0613139 0.080478743
1.2233512 -1.0763167 0.079706833
1.2149868 -1.0827938 0.078286149
1.2165015 -1.0978835 0.077505387
1.2188073 -1.1137921 0.076767594
1.2047535 -1.115014 0.074997261
1.2062269 -1.1302336 0.074203223
1.2028022 -1.1410172 0.073102489
1.1945204 -1.147234 0.071708374
1.1911092 -1.157974 0.070612073
1.1876981 -1.168714 0.06951578
1.1842871 -1.1794541 0.068419479
1.180876 -1.1901941 0.067323186
1.177465 -1.2009342 0.066226885
1.1788282 -1.2165009 0.065397426
1.1754034 -1.2272842 0.064296708
1.2337624 -1.0428553 0.071696632
1.2303375 -1.0536387 0.07059592
1.2269126 -1.0644221 0.069495186
1.2234879 -1.0752054 0.068394467
1.220063 -1.0859888 0.067293748
1.2166381 -1.0967722 0.066193022
1.2189447 -1.1126754 0.06540218
1.2097884 -1.1183391 0.063991569
1.2063636 -1.1291224 0.062890857
1.2029388 -1.1399059 0.061790124
1.1995139 -1.1506891 0.060689405
1.196089 -1.1614726 0.059588686
1.1926643 -1.172256 0.058487952
1.1892394 -1.1830394 0.05738724
1.181012 -1.1890873 0.056056328
1.1823897 -1.2046062 0.055185787
1.1789649 -1.2153896 0.054085061
1.17554 -1.2261729 0.052984342
1.2397274 -1.0465549 0.060672089
1.2362865 -1.0573889 0.0595662
1.2328455 -1.0682229 0.05846031
1.2294047 -1.079057 0.05735442
1.2259637 -1.089891 0.056248531
1.2225227 -1.1007249 0.055142641
1.2190819 -1.1115589 0.054036751
1.215641 -1.1223929 0.052930869
1.2122 -1.1332269 0.051824979
