# .PCD v.7 - Point Cloud Data file format
VERSION .7
FIELDS x y z
SIZE 4 4 4
TYPE F F F
COUNT 1 1 1
WIDTH 1882
HEIGHT 1
VIEWPOINT 0 0 0 1 0 0 0
POINTS 1882
DATA ascii
-0.73335 0.05943 -0.0941
-0.76444 0.10237 -0.09411
-0.76387 0.09912 -0.09867
-0.76242 0.10001 -0.10443
-0.74154 0.0717 -0.12327
-0.76319 0.10022 -0.11265
-0.76637 0.09731 -0.11798
-0.76754 0.09904 -0.12196
-0.75648 0.0845 -0.11549
-0.75722 0.08621 -0.12201
-0.76309 0.09307 -0.12512
-0.76188 0.08999 -0.12273
-0.765 0.09796 -0.0872
-0.76682 0.09939 -0.09016
-0.76314 0.09408 -0.08699
-0.75908 0.08832 -0.08934
-0.72852 0.04876 -0.1175
-0.73243 0.05255 -0.11043
-0.72868 0.04918 -0.10032
-0.76694 0.09726 -0.09395
-0.74913 0.07623 -0.09604
-0.75777 0.08539 -0.09514
-0.76573 0.09607 -0.09645
-0.76304 0.09281 -0.0986
-0.75992 0.08815 -0.09873
-0.75275 0.07984 -0.10259
-0.74074 0.0652 -0.11676
-0.7616 0.09443 -0.10367
-0.75845 0.08763 -0.10419
-0.76186 0.09486 -0.10887
-0.75996 0.09039 -0.10884
-0.76353 0.09434 -0.11386
-0.76131 0.09036 -0.11379
-0.76795 0.09594 -0.12198
-0.76584 0.093 -0.12205
-0.76478 0.09193 -0.11783
-0.76165 0.08861 -0.11817
-0.76731 0.095 -0.08988
-0.76493 0.09137 -0.09021
-0.76575 0.09248 -0.09401
-0.76244 0.08896 -0.09426
0.72413 0.04869 -0.01866
0.72618 0.04935 -0.01485
0.72398 0.05068 -0.01511
0.72057 0.04593 -0.02552
0.72021 0.05363 -0.01518
0.72139 0.04294 -0.02848
0.71029 0.05033 -0.02726
0.71351 0.05602 -0.01946
0.71526 0.05808 -0.01492
0.71225 0.05784 -0.01628
0.70992 0.05697 -0.0178
0.70961 0.0573 -0.02005
0.71048 0.05483 -0.01564
0.71965 0.04119 -0.03042
0.71811 0.04292 -0.0298
0.71593 0.04531 -0.0286
0.71162 0.04939 -0.01596
0.70766 0.0554 -0.024
0.7058 0.05448 -0.02005
0.70712 0.05649 -0.02166
0.7078 0.05675 -0.01963
0.71453 0.04331 -0.03024
0.71361 0.04482 -0.01471
0.71415 0.04726 -0.01436
0.70529 0.05541 -0.02373
0.70541 0.05553 -0.02187
0.70994 0.03881 -0.0339
0.70958 0.044 -0.01798
0.71206 0.04284 -0.01491
0.70215 0.04839 -0.02269
0.70299 0.05212 -0.02818
0.70374 0.05405 -0.0258
0.70353 0.05438 -0.02413
0.70371 0.05413 -0.02247
0.7023 0.05788 -0.01439
0.702 0.05597 -0.0143
0.70142 0.0568 -0.01682
0.70018 0.0589 -0.01906
0.70107 0.05965 -0.01511
0.69893 0.05828 -0.02224
0.69795 0.06058 -0.02046
0.69681 0.06212 -0.0166
0.69722 0.06005 -0.02268
0.69226 0.06075 -0.02476
0.70712 0.04086 -0.01984
0.70953 0.04132 -0.01723
0.71024 0.04162 -0.01515
0.70188 0.04763 -0.0325
0.70116 0.05127 -0.02408
0.70174 0.05267 -0.02617
0.7022 0.05315 -0.02438
0.69927 0.05569 -0.02134
0.69987 0.05532 -0.01897
0.70034 0.05469 -0.01709
0.70016 0.05461 -0.0152
0.69506 0.05798 -0.02674
0.69055 0.06563 -0.01686
0.70842 0.03985 -0.01745
0.70782 0.03972 -0.01514
0.69825 0.04312 -0.0263
0.70031 0.05133 -0.0267
0.69962 0.05028 -0.02924
0.69765 0.05409 -0.02424
0.6981 0.05375 -0.02177
0.69775 0.05383 -0.01977
0.69805 0.05409 -0.0172
0.69636 0.0559 -0.02688
0.68472 0.06173 -0.02712
0.68425 0.06756 -0.01582
0.70451 0.03914 -0.02227
0.70638 0.03799 -0.01971
0.70698 0.03869 -0.01768
0.69884 0.04926 -0.02657
0.69805 0.04935 -0.02884
0.69303 0.05094 -0.03066
0.69579 0.05155 -0.02642
0.69619 0.05187 -0.02383
0.69651 0.05254 -0.02173
0.69553 0.05299 -0.0189
0.69585 0.05421 -0.01506
0.68777 0.05502 -0.03262
0.70467 0.0363 -0.0217
0.70507 0.03643 -0.01957
0.67868 0.06563 -0.02082
0.70464 0.03695 -0.01741
0.69731 0.0473 -0.03277
0.69703 0.04808 -0.03067
0.69689 0.0477 -0.02885
0.69777 0.04687 -0.02666
0.69292 0.04869 -0.02907
0.69446 0.04992 -0.0262
0.69477 0.05054 -0.02428
0.69318 0.05078 -0.02123
0.69136 0.05284 -0.03228
0.69298 0.05197 -0.0172
0.69322 0.05297 -0.01477
0.70304 0.03009 -0.03936
0.7012 0.03428 -0.02438
0.70335 0.03444 -0.02211
0.70272 0.03478 -0.02006
0.67983 0.06728 -0.01598
0.69732 0.04161 -0.03745
0.69608 0.04486 -0.03538
0.69517 0.04574 -0.03316
0.69551 0.04637 -0.03108
0.69588 0.04574 -0.02884
0.69216 0.04809 -0.0262
0.69261 0.04916 -0.02409
0.69163 0.05112 -0.01472
0.68139 0.05885 -0.03164
0.67489 0.0613 -0.02754
0.70198 0.03347 -0.02215
0.699 0.0338 -0.01693
0.69284 0.03336 -0.04123
0.67692 0.06626 -0.01823
0.67537 0.06575 -0.01456
0.67873 0.06745 -0.01364
0.69177 0.0388 -0.03971
0.69277 0.04182 -0.0374
0.6934 0.04363 -0.0355
0.69361 0.04421 -0.03346
0.69429 0.0445 -0.03094
0.684 0.04603 -0.03706
0.69015 0.04959 -0.01629
0.67518 0.0527 -0.03497
0.69975 0.03167 -0.02439
0.70002 0.03257 -0.02234
0.69797 0.03243 -0.02068
0.69587 0.03413 -0.02835
0.67596 0.06389 -0.0237
0.67428 0.06474 -0.01841
0.69427 0.03959 -0.02936
0.69283 0.04179 -0.03124
0.69174 0.0423 -0.03553
0.69202 0.04271 -0.03372
0.68721 0.04223 -0.03146
0.68846 0.04428 -0.02804
0.68655 0.04642 -0.02266
0.68729 0.04773 -0.01809
0.69801 0.03134 -0.02631
0.69762 0.03071 -0.02423
0.66927 0.0599 -0.02361
0.69112 0.03716 -0.03159
0.69046 0.04015 -0.03775
0.69047 0.04039 -0.03365
0.69041 0.04098 -0.03597
0.68647 0.04323 -0.03523
0.69554 0.02984 -0.02725
0.69242 0.02798 -0.02575
0.69276 0.03101 -0.02989
0.6705 0.06032 -0.02699
0.6888 0.03669 -0.04047
0.68883 0.03862 -0.03797
0.68884 0.03917 -0.03571
0.689 0.03821 -0.03378
0.68394 0.04564 -0.01481
0.69297 0.02834 -0.02857
0.67035 0.05763 -0.03028
0.69247 0.02974 -0.01942
0.68797 0.03514 -0.03333
0.68579 0.03542 -0.04002
0.68671 0.0368 -0.03813
0.68726 0.03728 -0.03581
0.68145 0.03937 -0.02774
0.67987 0.04324 -0.02222
0.68124 0.04353 -0.01439
0.68159 0.04478 -0.01866
0.68894 0.02723 -0.0308
0.69028 0.02642 -0.02857
0.66589 0.05411 -0.03007
0.6838 0.02872 -0.0336
0.6845 0.03402 -0.03585
0.68321 0.03806 -0.0359
0.68185 0.03599 -0.03342
0.67779 0.03645 -0.04076
0.68391 0.03434 -0.03793
0.68181 0.03545 -0.03579
0.67803 0.04162 -0.02347
0.67684 0.04086 -0.0196
0.67849 0.04058 -0.01561
0.67747 0.04226 -0.02166
0.68667 0.02447 -0.02915
0.6854 0.02501 -0.03128
0.68777 0.02649 -0.01881
0.68269 0.03144 -0.04176
0.682 0.03302 -0.04016
0.68237 0.03333 -0.03837
0.68198 0.03172 -0.03616
0.6807 0.0343 -0.03805
0.67952 0.03221 -0.03557
0.66808 0.03764 -0.04174
0.67644 0.04037 -0.02371
0.67614 0.04107 -0.02182
0.65284 0.03966 -0.03061
0.68034 0.02044 -0.02916
0.67837 0.03285 -0.04067
0.67351 0.02865 -0.03307
0.67397 0.03604 -0.02654
0.67413 0.03302 -0.01667
0.67473 0.03877 -0.02413
0.67478 0.03967 -0.02189
0.6803 0.02236 -0.03231
0.68379 0.02303 -0.0255
0.68013 0.02434 -0.04462
0.67819 0.02672 -0.03539
0.67809 0.02914 -0.04051
0.67255 0.03708 -0.02375
0.67334 0.03787 -0.02188
0.68368 0.02228 -0.01886
0.65969 0.05178 -0.01905
0.67651 0.02752 -0.03823
0.67557 0.02875 -0.04067
0.67306 0.02894 -0.04291
0.67158 0.03477 -0.02152
0.67147 0.03411 -0.02675
0.67126 0.03554 -0.02426
0.67367 0.01614 -0.03234
0.67621 0.01455 -0.02454
0.67635 0.02681 -0.041
0.67513 0.02587 -0.03688
0.67297 0.02438 -0.04283
0.66369 0.02336 -0.04648
0.6691 0.03207 -0.02689
0.66961 0.03379 -0.0243
0.6751 0.0225 -0.03545
0.66991 0.0277 -0.02027
0.67168 0.02031 -0.01696
0.66729 0.03072 -0.02388
0.67367 0.0156 -0.04759
0.67298 0.02113 -0.04487
0.67247 0.02367 -0.03632
0.67265 0.02083 -0.03575
0.67047 0.01957 -0.04525
0.6707 0.01917 -0.03587
0.67042 0.02251 -0.04381
0.67056 0.02231 -0.03585
0.66619 0.02821 -0.02866
0.66538 0.02916 -0.02613
0.66495 0.02644 -0.02418
0.64984 0.04132 -0.01672
0.66764 0.02089 -0.04522
0.66815 0.02082 -0.03555
0.66767 0.01806 -0.03634
0.66543 0.0184 -0.02306
0.66885 0.00906 -0.02104
0.6639 0.02585 -0.02906
0.6636 0.02687 -0.02659
0.67692 0.01043 -0.01749
0.67392 0.00719 -0.0207
0.67422 0.00746 -0.01758
0.67676 0.00924 -0.01496
0.67465 0.00825 -0.01514
0.67314 0.01006 -0.01505
0.67176 0.01157 -0.0173
0.67258 0.01355 -0.0148
0.66886 0.01591 -0.0357
0.66768 0.01715 -0.04641
0.66077 0.01717 -0.03383
0.66185 0.02213 -0.03099
0.66011 0.02077 -0.02629
0.66176 0.02449 -0.02638
0.67187 0.006 -0.02517
0.67026 0.00534 -0.02087
0.67225 0.00856 -0.01764
0.66321 0.01089 -0.05003
0.67021 0.00645 -0.05087
0.66666 0.01439 -0.04817
0.66675 0.01283 -0.03571
0.6653 0.01564 -0.03644
0.66043 0.02316 -0.02853
0.66001 0.02265 -0.02704
0.66398 0.01562 -0.04779
0.66278 0.01339 -0.03638
0.66423 0.01177 -0.03654
0.65659 0.01137 -0.05018
0.65892 0.01956 -0.03093
0.65906 0.02108 -0.02872
0.66385 0.00801 -0.03599
0.66114 0.00931 -0.03633
0.65604 0.00791 -0.03561
0.65853 0.01826 -0.02693
0.65759 0.01887 -0.02872
0.66124 0.00373 -0.02641
0.65878 0.00332 -0.03701
0.65469 0.01165 -0.03314
0.65863 0.01266 -0.02704
0.65802 0.01571 -0.02714
0.65635 0.01641 -0.03086
0.65655 0.0168 -0.0286
0.65557 0.01391 -0.02881
0.65454 0.0097 -0.02917
0.65387 0.01238 -0.03081
0.6524 0.00866 -0.03347
0.65267 0.01005 -0.03135
0.65414 -0.00215 -0.03935
0.6514 0.00778 -0.03133
0.65131 0.0007 -0.03732
0.65058 0.00465 -0.03521
0.65159 0.00384 -0.03081
0.64993 0.00611 -0.03312
0.63559 0.02543 -0.02597
0.63515 0.02639 -0.0231
0.64865 0.00389 -0.03342
0.64874 0.00239 -0.03238
0.65842 -0.14893 -0.07928
0.59439 -0.09093 -0.08065
0.65517 -0.15552 -0.08009
0.64219 -0.1582 -0.08434
0.63407 -0.16368 -0.08371
0.628 -0.16697 -0.08199
0.59684 -0.12467 -0.16529
0.5964 -0.12297 -0.16767
0.59666 -0.1228 -0.16538
0.59583 -0.12341 -0.16361
0.59588 -0.12073 -0.16971
0.59579 -0.12257 -0.16998
0.59502 -0.12058 -0.17224
0.59559 -0.12052 -0.16787
0.59503 -0.12162 -0.1656
0.59214 -0.11773 -0.17767
0.59386 -0.1181 -0.17443
0.59434 -0.11854 -0.1722
0.59454 -0.11905 -0.1701
0.59357 -0.11993 -0.16775
0.5928 -0.11667 -0.17641
0.5928 -0.11665 -0.17475
0.5915 -0.11784 -0.17212
0.59009 -0.11579 -0.18072
0.591 -0.11519 -0.17893
0.5909 -0.11544 -0.1767
0.58915 -0.11432 -0.17908
0.58868 -0.11401 -0.18138
0.58146 -0.10807 -0.19042
0.58232 -0.10907 -0.19256
0.58095 -0.10725 -0.19281
0.58344 -0.10876 -0.19055
0.58326 -0.10933 -0.18811
0.59618 -0.12737 -0.16475
0.59543 -0.12594 -0.16718
0.59701 -0.12537 -0.16281
0.59713 -0.12825 -0.16068
0.59685 -0.1257 -0.16067
0.59558 -0.12653 -0.15857
0.59411 -0.12365 -0.17104
0.59467 -0.12471 -0.161
0.59023 -0.12381 -0.16461
0.58818 -0.12056 -0.17928
0.58785 -0.11642 -0.18331
0.58817 -0.11383 -0.18349
0.58667 -0.11464 -0.18567
0.5874 -0.1158 -0.17665
0.58525 -0.11294 -0.18815
0.58653 -0.11214 -0.18579
0.587 -0.11242 -0.18393
0.5869 -0.11271 -0.18192
0.58602 -0.11418 -0.17956
0.5842 -0.11071 -0.19035
0.58515 -0.11046 -0.18834
0.58533 -0.1107 -0.18646
0.58388 -0.11219 -0.18343
0.58033 -0.10755 -0.19484
0.58023 -0.10932 -0.19478
0.57925 -0.11117 -0.18639
0.57765 -0.10645 -0.19749
0.57931 -0.10588 -0.19525
0.5792 -0.10609 -0.19342
0.57839 -0.10755 -0.19102
0.57791 -0.10457 -0.19548
0.57769 -0.10385 -0.19743
0.5765 -0.10495 -0.1939
0.57504 -0.10291 -0.2008
0.57635 -0.10249 -0.19903
0.57659 -0.10279 -0.197
0.57471 -0.10101 -0.19969
0.57359 -0.10131 -0.20079
0.57384 -0.10175 -0.19714
0.59612 -0.13076 -0.16073
0.59523 -0.12968 -0.16286
0.59622 -0.13137 -0.15849
0.59667 -0.12885 -0.15666
0.59669 -0.1319 -0.15592
0.59634 -0.12935 -0.15409
0.59696 -0.13187 -0.15336
0.59565 -0.13015 -0.15149
0.59698 -0.13192 -0.15145
0.59651 -0.1321 -0.14969
0.57304 -0.10062 -0.19934
0.59056 -0.12964 -0.16708
0.59436 -0.1279 -0.1558
0.59454 -0.12897 -0.1534
0.58973 -0.12798 -0.15909
0.58001 -0.119 -0.18614
0.58231 -0.1125 -0.19108
0.57872 -0.11183 -0.19321
0.57396 -0.10699 -0.19202
0.59704 -0.13463 -0.14244
0.59697 -0.13627 -0.14201
0.59673 -0.13551 -0.14443
0.5962 -0.13546 -0.14032
0.57341 -0.10436 -0.2008
0.57157 -0.10418 -0.19393
0.5927 -0.13504 -0.15799
0.59573 -0.13436 -0.156
0.59614 -0.13461 -0.15405
0.59654 -0.13429 -0.15162
0.59656 -0.13493 -0.14929
0.59606 -0.13253 -0.14721
0.59664 -0.13491 -0.14673
0.59524 -0.13322 -0.14406
0.57239 -0.10255 -0.20119
0.59312 -0.13252 -0.16119
0.59433 -0.131 -0.14911
0.594 -0.13191 -0.14687
0.5713 -0.10148 -0.19956
0.57127 -0.10146 -0.19758
0.5923 -0.13008 -0.15336
0.5934 -0.13023 -0.15129
0.57974 -0.12139 -0.17504
0.57592 -0.11197 -0.19456
0.57731 -0.1138 -0.19205
0.57566 -0.1112 -0.18813
0.57665 -0.11279 -0.18581
0.57679 -0.11568 -0.18303
0.57459 -0.10968 -0.19687
0.59524 -0.13698 -0.15276
0.59455 -0.13598 -0.15531
0.59555 -0.13814 -0.14818
0.59602 -0.13826 -0.14298
0.59591 -0.13847 -0.13997
0.59567 -0.13785 -0.13749
0.59543 -0.13573 -0.13776
0.59429 -0.13695 -0.13512
0.57161 -0.10664 -0.19903
0.59367 -0.1344 -0.13983
0.59352 -0.13537 -0.13742
0.56996 -0.10377 -0.19943
0.59251 -0.13332 -0.14459
0.59218 -0.13249 -0.14887
0.59282 -0.13363 -0.14212
0.56932 -0.10259 -0.19735
0.56974 -0.10308 -0.19526
0.57529 -0.1151 -0.19233
0.57375 -0.11247 -0.19504
0.57511 -0.11425 -0.18539
0.57261 -0.11089 -0.19639
0.59394 -0.1396 -0.15053
0.5941 -0.1411 -0.14797
0.59404 -0.14226 -0.14283
0.59444 -0.14052 -0.13431
0.57134 -0.1093 -0.19715
0.57172 -0.1104 -0.18909
0.59151 -0.13951 -0.15327
0.59277 -0.13809 -0.13071
0.57017 -0.10866 -0.18987
0.59186 -0.1365 -0.13508
0.59163 -0.13601 -0.1376
0.59195 -0.13699 -0.13272
0.5688 -0.1061 -0.19191
0.59064 -0.13522 -0.1461
0.58647 -0.13655 -0.14993
0.59135 -0.13525 -0.14091
0.5661 -0.10494 -0.19478
0.56637 -0.11612 -0.08296
0.57248 -0.11423 -0.19383
0.57299 -0.1162 -0.19208
0.57254 -0.11409 -0.18593
0.57344 -0.11674 -0.18339
0.5708 -0.11232 -0.19475
0.59176 -0.14589 -0.13156
0.59214 -0.13915 -0.12693
0.59243 -0.14199 -0.12596
0.59082 -0.13999 -0.12326
0.56749 -0.10918 -0.19615
0.56801 -0.11553 -0.18318
0.59028 -0.13722 -0.1397
0.59003 -0.1378 -0.13548
0.59023 -0.13779 -0.13258
0.59037 -0.13799 -0.13046
0.59026 -0.13841 -0.12798
0.59024 -0.13881 -0.12552
0.56691 -0.1066 -0.19714
0.58912 -0.1376 -0.14589
0.59012 -0.1371 -0.14353
0.56417 -0.10713 -0.19022
0.57597 -0.11971 -0.17943
0.5751 -0.11814 -0.18177
0.57354 -0.11997 -0.1884
0.57067 -0.11535 -0.19251
0.57113 -0.11762 -0.1907
0.5923 -0.14569 -0.14086
0.5922 -0.14441 -0.14471
0.59155 -0.14331 -0.14752
0.5912 -0.14275 -0.12072
0.58915 -0.14134 -0.11854
0.58866 -0.13942 -0.14088
0.58797 -0.14039 -0.12959
0.58854 -0.13941 -0.1258
0.58849 -0.1397 -0.12336
0.5885 -0.14019 -0.121
0.56503 -0.10794 -0.19603
0.57951 -0.14002 -0.16271
0.56379 -0.10678 -0.19462
0.56278 -0.1061 -0.19248
0.57858 -0.12966 -0.17622
0.57922 -0.1258 -0.17993
0.57732 -0.12471 -0.18219
0.57677 -0.12367 -0.184
0.57531 -0.12269 -0.18554
0.57361 -0.11945 -0.18098
0.57444 -0.12194 -0.17821
0.56585 -0.11641 -0.18935
0.5699 -0.11877 -0.18951
0.57057 -0.12059 -0.17963
0.59081 -0.14679 -0.14229
0.59003 -0.14592 -0.1447
0.59115 -0.14727 -0.14005
0.59109 -0.14742 -0.1375
0.59092 -0.14654 -0.12333
0.58999 -0.14677 -0.11711
0.5894 -0.14391 -0.11536
0.58775 -0.14279 -0.11438
0.58552 -0.14128 -0.14427
0.58661 -0.14263 -0.13989
0.58708 -0.14091 -0.12379
0.58671 -0.14117 -0.12109
0.58676 -0.14132 -0.11867
0.58683 -0.14177 -0.11635
0.56339 -0.10885 -0.19456
0.56074 -0.10811 -0.19209
0.55884 -0.10853 -0.18784
0.57413 -0.13454 -0.1631
0.57704 -0.12811 -0.17892
0.61027 -0.16639 -0.08045
0.59984 -0.15758 -0.07999
0.6047 -0.158 -0.08099
0.57624 -0.12685 -0.1812
0.60129 -0.15643 -0.08055
0.57414 -0.12578 -0.1829
0.57482 -0.12528 -0.17445
0.60005 -0.15488 -0.08018
0.57011 -0.12342 -0.18516
0.59754 -0.15406 -0.07959
0.59333 -0.15132 -0.08016
0.60144 -0.14312 -0.07884
0.56863 -0.12045 -0.1875
0.58561 -0.14776 -0.1466
0.58857 -0.14817 -0.14326
0.58951 -0.14862 -0.13972
0.58952 -0.14942 -0.13472
0.5886 -0.15104 -0.12153
0.5889 -0.15131 -0.11531
0.58819 -0.14754 -0.1101
0.58834 -0.14468 -0.11208
0.58769 -0.14538 -0.10946
0.58677 -0.14647 -0.10738
0.58663 -0.14311 -0.11191
0.58527 -0.1442 -0.10854
0.58548 -0.14371 -0.12196
0.58521 -0.14306 -0.1188
0.5849 -0.14296 -0.11635
0.58517 -0.1426 -0.11399
0.56104 -0.11121 -0.19168
0.58381 -0.14274 -0.1114
0.55573 -0.11474 -0.17795
0.55643 -0.10988 -0.18755
0.57546 -0.12892 -0.17937
0.57188 -0.12594 -0.17442
0.57312 -0.12945 -0.17026
0.59628 -0.16226 -0.07986
0.59994 -0.17305 -0.07848
0.58861 -0.15096 -0.11239
0.56516 -0.12435 -0.18214
0.58772 -0.14986 -0.14012
0.58596 -0.15155 -0.14019
0.58777 -0.15073 -0.13792
0.58796 -0.15078 -0.10949
0.58696 -0.14922 -0.10653
0.5838 -0.14846 -0.10186
0.58451 -0.14592 -0.13783
0.58172 -0.14644 -0.14036
0.58465 -0.14588 -0.13456
0.58293 -0.14873 -0.12601
0.58318 -0.14739 -0.1172
0.5827 -0.14393 -0.11373
0.5831 -0.14288 -0.10922
0.55621 -0.11151 -0.18824
0.5811 -0.14257 -0.10948
0.57419 -0.13933 -0.15709
0.57739 -0.135 -0.17058
0.57599 -0.13135 -0.16638
0.57325 -0.13027 -0.17853
0.57435 -0.13196 -0.17666
0.57458 -0.13359 -0.17448
0.5673 -0.1296 -0.17797
0.56344 -0.12868 -0.16739
0.58614 -0.15256 -0.13735
0.5868 -0.15258 -0.13549
0.58711 -0.15532 -0.11505
0.58741 -0.15461 -0.10981
0.58743 -0.15163 -0.10718
0.58719 -0.15386 -0.10613
0.58588 -0.15127 -0.10321
0.58864 -0.15751 -0.0818
0.58227 -0.14413 -0.08338
0.58305 -0.14767 -0.13698
0.58272 -0.14877 -0.13383
0.58166 -0.14609 -0.103
0.58166 -0.14672 -0.11373
0.5804 -0.14479 -0.11292
0.58017 -0.14347 -0.107
0.6118 -0.11272 -0.07724
0.57978 -0.1431 -0.11138
0.57872 -0.14267 -0.10902
0.57511 -0.1392 -0.167
0.57232 -0.13801 -0.16976
0.57094 -0.13428 -0.17404
0.57322 -0.13416 -0.16534
0.57185 -0.13229 -0.17658
0.57173 -0.13267 -0.167
0.58435 -0.15444 -0.13731
0.58509 -0.15451 -0.13518
0.58579 -0.15423 -0.13217
0.58654 -0.15443 -0.10256
0.58511 -0.15268 -0.10031
0.58561 -0.15596 -0.10025
0.58407 -0.15359 -0.09787
0.57923 -0.15007 -0.13667
0.57946 -0.15155 -0.13351
0.58241 -0.15004 -0.09777
0.58027 -0.15173 -0.09253
0.58189 -0.1499 -0.11425
0.57979 -0.14851 -0.11096
0.58132 -0.1506 -0.11185
0.57775 -0.14608 -0.09767
0.57909 -0.14625 -0.11219
0.55338 -0.11558 -0.18308
0.57856 -0.14488 -0.10269
0.57763 -0.14459 -0.11154
0.57643 -0.14335 -0.10959
0.57626 -0.14324 -0.10688
0.55377 -0.1124 -0.18535
0.55189 -0.11331 -0.1816
0.57465 -0.14202 -0.15262
0.5922 -0.1664 -0.08041
0.58666 -0.15611 -0.10357
0.58134 -0.15849 -0.13215
0.58474 -0.1569 -0.12865
0.58449 -0.15603 -0.09714
0.58346 -0.15678 -0.09483
0.55378 -0.12665 -0.17205
0.58046 -0.15232 -0.12789
0.58128 -0.15283 -0.11897
0.58154 -0.15284 -0.1139
0.58128 -0.15311 -0.11152
0.5799 -0.15163 -0.10883
0.5809 -0.15382 -0.10965
0.583 -0.15488 -0.08446
0.57942 -0.15041 -0.08582
0.57549 -0.15237 -0.10251
0.57625 -0.14763 -0.10975
0.57645 -0.14797 -0.09304
0.5774 -0.14755 -0.08565
0.57535 -0.1454 -0.11079
0.57539 -0.14251 -0.08498
0.57417 -0.1441 -0.16115
0.57362 -0.14264 -0.16346
0.5741 -0.14385 -0.10915
0.5738 -0.14341 -0.10379
0.57457 -0.14377 -0.09983
0.55073 -0.11433 -0.17758
0.57398 -0.14438 -0.09721
0.57232 -0.14077 -0.16706
0.57283 -0.14186 -0.16544
0.57291 -0.14321 -0.10667
0.58548 -0.16163 -0.10805
0.58563 -0.15929 -0.10253
0.58524 -0.15766 -0.12302
0.5844 -0.16078 -0.09698
0.57944 -0.15567 -0.1397
0.582 -0.15604 -0.0911
0.58343 -0.15799 -0.09339
0.58281 -0.15924 -0.09133
0.58162 -0.15714 -0.08847
0.58256 -0.1583 -0.08626
0.5818 -0.15591 -0.0864
0.57942 -0.15494 -0.12332
0.57785 -0.15529 -0.12692
0.58073 -0.156 -0.11253
0.5807 -0.15627 -0.10928
0.57994 -0.15433 -0.1073
0.58029 -0.15683 -0.10708
0.57919 -0.1552 -0.10516
0.58059 -0.15366 -0.08831
0.58114 -0.15383 -0.08611
0.57704 -0.15453 -0.12971
0.5782 -0.15337 -0.10506
0.57674 -0.14896 -0.08832
0.57691 -0.14645 -0.15548
0.57665 -0.14879 -0.09079
0.57379 -0.14559 -0.15917
0.57358 -0.14684 -0.11018
0.57146 -0.14602 -0.09361
0.5741 -0.14748 -0.09051
0.55153 -0.12013 -0.16847
0.5491 -0.11762 -0.17042
0.57353 -0.14701 -0.08811
0.57506 -0.14651 -0.08625
0.57187 -0.14459 -0.16243
0.57254 -0.14562 -0.16061
0.57404 -0.14633 -0.14709
0.57241 -0.14532 -0.10987
0.54985 -0.11565 -0.17404
0.57206 -0.14252 -0.08598
0.56966 -0.14262 -0.16451
0.57118 -0.14403 -0.15302
0.56937 -0.1424 -0.15567
0.57171 -0.14414 -0.10874
0.5703 -0.14358 -0.10702
0.56798 -0.14324 -0.10347
0.57024 -0.14385 -0.09749
0.56869 -0.13919 -0.15901
0.56901 -0.14301 -0.10032
0.56692 -0.14119 -0.08654
0.58945 -0.17611 -0.07982
0.58709 -0.16444 -0.0829
0.58441 -0.16079 -0.08479
0.58367 -0.16089 -0.12126
0.58292 -0.16008 -0.12571
0.58468 -0.16165 -0.11473
0.58318 -0.16661 -0.09843
0.57863 -0.15746 -0.11843
0.57887 -0.15886 -0.11363
0.57987 -0.15901 -0.10962
0.57944 -0.15997 -0.10603
0.57939 -0.15733 -0.10477
0.57885 -0.15836 -0.10277
0.58308 -0.16128 -0.08839
0.57711 -0.1572 -0.12288
0.57787 -0.15592 -0.10285
0.57463 -0.15084 -0.15099
0.57311 -0.14968 -0.15372
0.57268 -0.15174 -0.13979
0.57122 -0.15417 -0.13718
0.57191 -0.15076 -0.10275
0.57051 -0.14669 -0.15959
0.59017 -0.18427 -0.07647
0.57217 -0.14789 -0.1091
0.57183 -0.14898 -0.10719
0.57091 -0.14666 -0.10955
0.54857 -0.11767 -0.17729
0.54832 -0.11636 -0.17646
0.54788 -0.11656 -0.17401
0.5478 -0.11698 -0.1717
0.56947 -0.14651 -0.09027
0.57008 -0.14573 -0.08796
0.56807 -0.14432 -0.15328
0.56832 -0.14792 -0.14859
0.56935 -0.14529 -0.10879
0.56512 -0.14515 -0.09555
0.56207 -0.14646 -0.0924
0.56064 -0.14009 -0.15227
0.58776 -0.17042 -0.08207
0.58567 -0.16793 -0.08421
0.56061 -0.13529 -0.16787
0.58529 -0.16493 -0.08448
0.5818 -0.16414 -0.1169
0.58295 -0.16489 -0.11138
0.58435 -0.16511 -0.08642
0.58377 -0.16456 -0.09249
0.58357 -0.16407 -0.08869
0.57538 -0.1608 -0.11605
0.57684 -0.16219 -0.10939
0.57851 -0.16131 -0.10138
0.57755 -0.15828 -0.09986
0.57786 -0.16125 -0.09717
0.57688 -0.15929 -0.09596
0.57438 -0.15401 -0.14647
0.57485 -0.15652 -0.09526
0.5722 -0.15281 -0.1499
0.57327 -0.15403 -0.09527
0.54918 -0.12045 -0.17578
0.57017 -0.15057 -0.15445
0.57155 -0.1502 -0.14363
0.57141 -0.1526 -0.09667
0.54703 -0.12225 -0.17142
0.5491 -0.12183 -0.16423
0.56972 -0.15002 -0.14592
0.54697 -0.11894 -0.17402
0.54707 -0.11968 -0.16722
0.56919 -0.14776 -0.10863
0.54648 -0.11814 -0.17184
0.54651 -0.11854 -0.16973
0.56632 -0.14449 -0.10702
0.56233 -0.1438 -0.09977
0.58369 -0.17528 -0.08595
0.58424 -0.1691 -0.08748
0.58353 -0.16801 -0.09165
0.58411 -0.16616 -0.08892
0.56827 -0.16425 -0.11698
0.57591 -0.16033 -0.09359
0.57664 -0.16303 -0.09346
0.57531 -0.16149 -0.09165
0.57429 -0.15932 -0.09156
0.57317 -0.15739 -0.14226
0.57149 -0.15648 -0.14506
0.57256 -0.16028 -0.13802
0.57323 -0.15611 -0.13101
0.57253 -0.1571 -0.09152
0.57019 -0.15427 -0.14982
0.57197 -0.15553 -0.13348
0.56996 -0.1551 -0.09206
0.56888 -0.15223 -0.1434
0.56979 -0.15276 -0.14183
0.56828 -0.15444 -0.13973
0.54717 -0.12463 -0.16891
0.54913 -0.12471 -0.15979
0.54637 -0.12311 -0.16048
0.56641 -0.15211 -0.14349
0.56442 -0.15249 -0.09755
0.54601 -0.11983 -0.17136
0.54568 -0.12065 -0.16923
0.54519 -0.12139 -0.16685
0.54552 -0.1214 -0.16455
0.54569 -0.12207 -0.16229
0.56689 -0.14963 -0.10622
0.56595 -0.14724 -0.10843
0.58659 -0.17585 -0.08181
0.55864 -0.14657 -0.15375
0.56362 -0.14602 -0.10821
0.56254 -0.14631 -0.09007
0.56489 -0.14542 -0.0882
0.56206 -0.14447 -0.10578
0.56222 -0.14122 -0.08678
0.58086 -0.17124 -0.09492
0.57629 -0.17127 -0.10718
0.57568 -0.16553 -0.10044
0.57725 -0.16407 -0.09645
0.57369 -0.16204 -0.1337
0.57558 -0.16476 -0.09156
0.5732 -0.16146 -0.09076
0.59397 -0.19726 -0.06508
0.57252 -0.15976 -0.12338
0.5736 -0.16051 -0.11931
0.56832 -0.15733 -0.14629
0.56977 -0.15939 -0.14255
0.57131 -0.15837 -0.1283
0.57022 -0.15821 -0.13052
0.57252 -0.15838 -0.12636
0.54859 -0.12802 -0.15389
0.55154 -0.13086 -0.153
0.56839 -0.15621 -0.13666
0.56895 -0.15709 -0.13457
0.56797 -0.15897 -0.13167
0.56966 -0.15745 -0.09048
0.5477 -0.12611 -0.15654
0.54558 -0.12285 -0.16893
0.54494 -0.12383 -0.16654
0.54499 -0.1247 -0.15826
0.54422 -0.1236 -0.16438
0.54422 -0.12303 -0.16252
0.5443 -0.12412 -0.16057
0.5852 -0.1798 -0.08175
0.56258 -0.1495 -0.14351
0.56378 -0.14852 -0.10812
0.56181 -0.14737 -0.10876
0.56028 -0.14561 -0.10834
0.56105 -0.1455 -0.08827
0.578 -0.16547 -0.11995
0.57543 -0.16622 -0.094
0.57305 -0.16439 -0.12934
0.57339 -0.16601 -0.09156
0.56667 -0.16105 -0.09131
0.57029 -0.16224 -0.13751
0.5712 -0.16266 -0.13533
0.54989 -0.1319 -0.14939
0.54814 -0.13228 -0.14674
0.56854 -0.1598 -0.12992
0.56909 -0.16003 -0.12821
0.56979 -0.16083 -0.12533
0.54695 -0.12944 -0.16184
0.54628 -0.12965 -0.14896
0.56644 -0.15794 -0.13417
0.54493 -0.12639 -0.16307
0.54465 -0.12733 -0.15333
0.54479 -0.12828 -0.151
0.5632 -0.15556 -0.13572
0.56671 -0.15649 -0.09088
0.54386 -0.12454 -0.16236
0.54368 -0.12594 -0.15984
0.54344 -0.12628 -0.15793
0.54386 -0.1265 -0.15583
0.55207 -0.13912 -0.08631
0.53368 -0.14344 -0.08596
0.56457 -0.15376 -0.15116
0.56481 -0.15473 -0.09246
0.56224 -0.15007 -0.10641
0.55991 -0.14888 -0.10897
0.55907 -0.14682 -0.10966
0.55926 -0.1465 -0.09004
0.55721 -0.1455 -0.10899
0.55653 -0.14494 -0.10619
0.55537 -0.14706 -0.09544
0.55728 -0.14511 -0.08801
0.55566 -0.14475 -0.10203
0.55651 -0.14479 -0.09934
0.57272 -0.16965 -0.11768
0.57433 -0.16653 -0.12261
0.57365 -0.16539 -0.12666
0.5693 -0.17001 -0.10207
0.56983 -0.16533 -0.13168
0.56926 -0.16418 -0.13444
0.56912 -0.16724 -0.12721
0.57079 -0.16648 -0.09188
0.54662 -0.13204 -0.15778
0.56749 -0.16332 -0.13709
0.546 -0.13219 -0.14383
0.54821 -0.13465 -0.1426
0.54522 -0.13332 -0.1416
0.5667 -0.16123 -0.127
0.54418 -0.13108 -0.14623
0.54414 -0.13208 -0.14373
0.58282 -0.19588 -0.07088
0.56261 -0.16057 -0.12736
0.54371 -0.1276 -0.15991
0.54359 -0.1283 -0.15779
0.54338 -0.12889 -0.15533
0.54364 -0.13087 -0.15505
0.54314 -0.12922 -0.15266
0.5434 -0.12993 -0.14898
0.56395 -0.15722 -0.0911
0.56262 -0.15588 -0.09154
0.57839 -0.18761 -0.08228
0.55973 -0.15397 -0.14813
0.5764 -0.179 -0.093
0.55947 -0.15081 -0.10604
0.55714 -0.15021 -0.10895
0.55699 -0.14786 -0.11055
0.55506 -0.14643 -0.11095
0.55461 -0.14736 -0.09043
0.55526 -0.14631 -0.08839
0.5774 -0.17474 -0.09736
0.55386 -0.14514 -0.10868
0.5715 -0.16875 -0.12145
0.57033 -0.17045 -0.09736
0.57185 -0.16867 -0.09341
0.54888 -0.13718 -0.1399
0.57125 -0.16773 -0.12462
0.54616 -0.13496 -0.13952
0.54517 -0.13621 -0.13697
0.54737 -0.13782 -0.1364
0.54624 -0.13827 -0.13459
0.54535 -0.1341 -0.1533
0.54515 -0.1352 -0.1507
0.54381 -0.13464 -0.13952
0.56484 -0.16189 -0.13979
0.54303 -0.13144 -0.15299
0.5429 -0.13182 -0.15089
0.5428 -0.13235 -0.14837
0.54271 -0.13274 -0.146
0.54262 -0.13318 -0.14392
0.54308 -0.13359 -0.14181
0.56465 -0.16041 -0.14257
0.56219 -0.15778 -0.14581
0.56309 -0.1633 -0.12165
0.55689 -0.15505 -0.1282
0.55876 -0.15892 -0.09207
0.55868 -0.15527 -0.14541
0.56077 -0.15693 -0.09154
0.56052 -0.15512 -0.09299
0.54863 -0.14645 -0.14059
0.55459 -0.14932 -0.11123
0.55062 -0.14316 -0.13399
0.55296 -0.14762 -0.11243
0.57487 -0.17712 -0.09799
0.57428 -0.17572 -0.10094
0.55177 -0.14586 -0.11094
0.54991 -0.14604 -0.10513
0.55287 -0.14617 -0.09934
0.55241 -0.14586 -0.08817
0.57188 -0.17581 -0.10457
0.55124 -0.14541 -0.1084
0.55122 -0.14618 -0.10171
0.56658 -0.17056 -0.11994
0.56903 -0.1746 -0.10925
0.56893 -0.16844 -0.0931
0.54434 -0.13581 -0.14839
0.54509 -0.13837 -0.14595
0.54349 -0.13782 -0.13458
0.54552 -0.13914 -0.13231
0.54364 -0.13885 -0.13204
0.54444 -0.13963 -0.13088
0.56392 -0.1669 -0.12974
0.54257 -0.1349 -0.14576
0.54241 -0.13531 -0.14364
0.54324 -0.13807 -0.14297
0.54232 -0.13587 -0.14104
0.54269 -0.13666 -0.13737
0.56242 -0.16358 -0.13651
0.56128 -0.16133 -0.14018
0.55888 -0.15759 -0.14293
0.55655 -0.15879 -0.13716
0.55742 -0.15665 -0.09286
0.55741 -0.15477 -0.09523
0.5551 -0.15226 -0.10513
0.55599 -0.15373 -0.09913
0.55201 -0.15206 -0.10898
0.55233 -0.15069 -0.1114
0.55165 -0.1492 -0.11297
0.54879 -0.1481 -0.11346
0.54902 -0.14931 -0.09686
0.55103 -0.14885 -0.09281
0.54887 -0.14885 -0.09002
0.57169 -0.17692 -0.10217
0.54928 -0.146 -0.12797
0.54897 -0.14624 -0.11093
0.54815 -0.14644 -0.10775
0.56882 -0.17091 -0.09546
0.54568 -0.14115 -0.12975
0.56552 -0.1697 -0.0939
0.54346 -0.14009 -0.14092
0.54226 -0.13803 -0.14125
0.54211 -0.13833 -0.13919
0.54312 -0.14077 -0.13865
0.54216 -0.13899 -0.13654
0.54209 -0.13963 -0.13292
0.54284 -0.14118 -0.13017
0.56385 -0.16856 -0.12581
0.55915 -0.16319 -0.11751
0.55991 -0.1666 -0.11237
0.5598 -0.16239 -0.13726
0.55867 -0.16269 -0.1349
0.5594 -0.16157 -0.12182
0.55398 -0.15898 -0.09344
0.55384 -0.15625 -0.09597
0.54914 -0.14716 -0.1259
0.55277 -0.1544 -0.10072
0.54792 -0.14756 -0.12343
0.54987 -0.15066 -0.11343
0.54935 -0.15275 -0.11131
0.57151 -0.17799 -0.1001
0.57199 -0.17928 -0.09789
0.56735 -0.17892 -0.10133
0.54651 -0.14709 -0.11062
0.54717 -0.14322 -0.12813
0.54633 -0.14431 -0.12518
0.54504 -0.1469 -0.08817
0.56711 -0.1719 -0.09788
0.54534 -0.1422 -0.12728
0.54419 -0.14319 -0.12559
0.5652 -0.17078 -0.10372
0.5659 -0.1719 -0.10012
0.56611 -0.1714 -0.09552
0.54342 -0.14193 -0.12753
0.56257 -0.17026 -0.12203
0.56111 -0.16896 -0.10872
0.56201 -0.16939 -0.09391
0.5634 -0.1719 -0.09561
0.54257 -0.14154 -0.13625
0.54194 -0.14203 -0.13268
0.56033 -0.16852 -0.1255
0.55968 -0.16492 -0.1322
0.55897 -0.16631 -0.12848
0.55321 -0.16023 -0.12903
0.55508 -0.15929 -0.13413
0.55511 -0.16393 -0.09388
0.55268 -0.1568 -0.11889
0.54439 -0.14657 -0.13238
0.55031 -0.15385 -0.11906
0.55038 -0.15437 -0.10575
0.54929 -0.15063 -0.12124
0.54934 -0.15198 -0.11962
0.54832 -0.15142 -0.11586
0.54866 -0.15271 -0.11347
0.57086 -0.18107 -0.0957
0.54745 -0.14946 -0.11798
0.54744 -0.14886 -0.11567
0.5461 -0.15033 -0.09911
0.54119 -0.1549 -0.09514
0.54633 -0.14745 -0.11897
0.54604 -0.14751 -0.11632
0.54626 -0.14745 -0.1139
0.54536 -0.14913 -0.10271
0.54437 -0.14581 -0.12106
0.54406 -0.14678 -0.11823
0.54455 -0.14721 -0.11561
0.54462 -0.14752 -0.11325
0.54578 -0.14741 -0.10644
0.54329 -0.14371 -0.13492
0.54312 -0.145 -0.12334
0.54243 -0.14416 -0.12574
0.56368 -0.17228 -0.10038
0.5637 -0.17245 -0.09798
0.54182 -0.14326 -0.12984
0.54179 -0.14316 -0.12791
0.56071 -0.17262 -0.1166
0.56066 -0.172 -0.10082
0.56097 -0.17254 -0.09742
0.56092 -0.17212 -0.0954
0.55925 -0.17092 -0.09458
0.55886 -0.17013 -0.12104
0.5577 -0.16944 -0.10587
0.55756 -0.16665 -0.12625
0.5571 -0.16758 -0.12355
0.5566 -0.16694 -0.10916
0.55128 -0.16063 -0.11123
0.55264 -0.16082 -0.09377
0.54938 -0.15988 -0.09685
0.55007 -0.15729 -0.114
0.54923 -0.15662 -0.10131
0.56924 -0.18504 -0.09147
0.54886 -0.15441 -0.11462
0.54813 -0.15494 -0.11191
0.54827 -0.15528 -0.10882
0.54818 -0.15642 -0.10467
0.54446 -0.14937 -0.12956
0.54558 -0.15163 -0.0926
0.54396 -0.15022 -0.12723
0.54237 -0.14661 -0.12956
0.54231 -0.14741 -0.12768
0.54211 -0.14717 -0.12519
0.54221 -0.14803 -0.12079
0.54241 -0.14844 -0.11541
0.54304 -0.14864 -0.10985
0.54376 -0.14868 -0.10686
0.54157 -0.1448 -0.12956
0.54158 -0.14521 -0.1275
0.56275 -0.17469 -0.11195
0.56138 -0.17775 -0.10561
0.55809 -0.17352 -0.11402
0.55396 -0.16902 -0.11638
0.55955 -0.17494 -0.11174
0.5593 -0.17258 -0.09806
0.55925 -0.17241 -0.0961
0.56343 -0.19895 -0.0768
0.55732 -0.1713 -0.09953
0.55759 -0.17151 -0.0958
0.55494 -0.16887 -0.10325
0.55586 -0.16938 -0.09562
0.55054 -0.16362 -0.10626
0.55317 -0.16653 -0.09552
0.55119 -0.16486 -0.09551
0.55003 -0.16257 -0.09534
0.5468 -0.15791 -0.12196
0.54861 -0.15719 -0.11116
0.54816 -0.15807 -0.10922
0.54867 -0.16012 -0.10852
0.54756 -0.15821 -0.10696
0.54746 -0.15863 -0.10222
0.5477 -0.15925 -0.09998
0.54736 -0.15865 -0.10462
0.5444 -0.15282 -0.12503
0.54306 -0.15297 -0.12226
0.5442 -0.15133 -0.0904
0.54234 -0.14985 -0.12466
0.54221 -0.1506 -0.12278
0.54201 -0.15121 -0.12073
0.56317 -0.1791 -0.10277
0.56261 -0.18244 -0.09849
0.54183 -0.15286 -0.11821
0.54098 -0.15167 -0.11394
0.54125 -0.15005 -0.11126
0.5418 -0.15093 -0.107
0.56047 -0.17619 -0.10927
0.55673 -0.17437 -0.11128
0.55788 -0.17664 -0.10772
0.55476 -0.16925 -0.09816
0.55277 -0.16735 -0.10267
0.55318 -0.16805 -0.10035
0.55191 -0.16667 -0.09778
0.55016 -0.16561 -0.10159
0.54971 -0.16497 -0.09737
0.54831 -0.16328 -0.10338
0.54852 -0.16348 -0.09647
0.54809 -0.16042 -0.10642
0.54771 -0.16104 -0.10426
0.54721 -0.16144 -0.10157
0.54802 -0.16205 -0.09722
0.54733 -0.16147 -0.09905
0.54481 -0.15881 -0.11771
0.54311 -0.15588 -0.11858
0.54311 -0.15492 -0.12046
0.54194 -0.15562 -0.11507
0.5421 -0.15314 -0.12049
0.54171 -0.15372 -0.09965
0.54131 -0.15343 -0.09101
0.54087 -0.15201 -0.1112
0.54066 -0.15399 -0.10887
0.5405 -0.15313 -0.10604
0.54105 -0.15313 -0.10276
0.55791 -0.18283 -0.09911
0.55345 -0.17531 -0.10688
0.55497 -0.17956 -0.10277
0.54804 -0.16358 -0.0986
0.54577 -0.16548 -0.11116
0.54426 -0.16181 -0.11295
0.54498 -0.16097 -0.11568
0.54301 -0.15851 -0.11582
0.54261 -0.15884 -0.11375
0.54126 -0.15764 -0.10917
0.54019 -0.15511 -0.10483
0.54009 -0.1575 -0.10406
0.54006 -0.15572 -0.10156
0.53981 -0.1563 -0.09773
0.53768 -0.15686 -0.09173
0.53507 -0.15354 -0.08901
0.54935 -0.17964 -0.10067
0.546 -0.16951 -0.10697
0.5437 -0.16346 -0.11115
0.54296 -0.16408 -0.10864
0.5424 -0.16167 -0.11026
0.54087 -0.16115 -0.10496
0.55867 -0.18828 -0.09165
0.53931 -0.1596 -0.09975
0.53847 -0.15813 -0.0951
0.54324 -0.16662 -0.10686
0.54205 -0.16801 -0.10392
0.54193 -0.16476 -0.10635
0.54114 -0.16552 -0.10395
0.53995 -0.16369 -0.10181
0.53765 -0.16094 -0.09545
0.53678 -0.15975 -0.09297
0.53391 -0.15936 -0.09077
0.54504 -0.17539 -0.10156
0.53846 -0.16747 -0.09889
0.53533 -0.16277 -0.09301
0.5438 -0.19274 -0.08688
0.5182 -0.16146 -0.08668
0.54076 -0.1726 -0.10018
0.53039 -0.16514 -0.09051
0.53263 -0.17015 -0.09256
0.53529 -0.18218 -0.09161
0.52602 -0.17364 -0.08851
0.52621 -0.18366 -0.08586
0.51563 -0.17104 -0.0856
0.64547 -0.08873 -0.06694
0.66078 -0.10318 -0.06597
0.65381 -0.09652 -0.06589
0.65884 -0.11668 -0.0704
0.65498 -0.10979 -0.06947
0.65385 -0.10627 -0.06806
0.65316 -0.10415 -0.06764
0.65 -0.103 -0.06858
0.65245 -0.10745 -0.06852
0.65262 -0.10835 -0.0688
0.65147 -0.10622 -0.06864
0.651 -0.1081 -0.06911
0.65016 -0.10683 -0.06954
0.65151 -0.10942 -0.06914
0.64899 -0.10905 -0.0707
0.64827 -0.10641 -0.07019
0.64738 -0.10342 -0.06953
0.65007 -0.11017 -0.07003
0.64471 -0.10356 -0.07037
0.65112 -0.11088 -0.06962
0.65112 -0.11245 -0.07014
0.64877 -0.11092 -0.0712
0.64774 -0.10988 -0.07158
0.64662 -0.10823 -0.0712
0.64427 -0.10599 -0.07113
0.63095 -0.09754 -0.0723
0.65011 -0.11593 -0.07128
0.64976 -0.11181 -0.07025
0.6472 -0.11074 -0.072
0.64769 -0.11184 -0.07213
0.64506 -0.10983 -0.07222
0.64303 -0.10712 -0.07188
0.64977 -0.11437 -0.07075
0.64951 -0.11329 -0.07042
0.64877 -0.11259 -0.0713
0.64636 -0.11141 -0.07239
0.64679 -0.11232 -0.07273
0.65226 -0.12319 -0.07421
0.64844 -0.11547 -0.07121
0.65965 -0.12948 -0.07476
0.64853 -0.11412 -0.07125
0.64762 -0.11327 -0.07238
0.64495 -0.11195 -0.07299
0.64617 -0.11304 -0.07309
0.63993 -0.10994 -0.07325
0.64752 -0.115 -0.07231
0.64658 -0.11407 -0.07319
0.64485 -0.11363 -0.0735
0.64767 -0.11831 -0.0718
0.64756 -0.11647 -0.07142
0.64693 -0.1164 -0.07243
0.64643 -0.11551 -0.07337
0.65589 -0.12748 -0.07564
0.64562 -0.11467 -0.07373
0.6442 -0.11457 -0.07402
0.64211 -0.11351 -0.07406
0.64304 -0.11238 -0.07352
0.64648 -0.11749 -0.07246
0.64673 -0.11725 -0.07165
0.65568 -0.13174 -0.07759
0.64616 -0.11682 -0.07338
0.64555 -0.11625 -0.07406
0.64473 -0.11556 -0.07428
0.64288 -0.11611 -0.07466
0.65372 -0.1293 -0.07678
0.65314 -0.12764 -0.07602
0.65207 -0.12691 -0.07572
0.65135 -0.12586 -0.07521
0.64927 -0.12409 -0.074
0.6466 -0.11964 -0.07231
0.65504 -0.13838 -0.08079
0.64552 -0.11792 -0.07346
0.64447 -0.11711 -0.07445
0.6401 -0.11486 -0.07471
0.65181 -0.12831 -0.07609
0.65967 -0.13927 -0.07727
0.632 -0.11311 -0.07513
0.65053 -0.12713 -0.07524
0.64594 -0.1219 -0.07274
0.65475 -0.1358 -0.07984
0.64509 -0.11924 -0.07269
0.6444 -0.11908 -0.0737
0.64279 -0.11798 -0.07509
0.65355 -0.1307 -0.07735
0.65201 -0.13041 -0.07701
0.65051 -0.12905 -0.0758
0.6467 -0.12952 -0.07543
0.6442 -0.12019 -0.07254
0.65386 -0.13349 -0.07878
0.65327 -0.13235 -0.07826
0.6394 -0.11647 -0.07535
0.65276 -0.13147 -0.07776
0.65062 -0.13094 -0.07658
0.64236 -0.12218 -0.07283
0.65342 -0.13501 -0.07977
0.64241 -0.11992 -0.07456
0.64307 -0.12032 -0.07349
0.64261 -0.12047 -0.07275
0.65276 -0.13399 -0.07933
0.65244 -0.13307 -0.07867
0.65161 -0.13242 -0.07804
0.65137 -0.1316 -0.07737
0.65356 -0.13643 -0.08049
0.65254 -0.13562 -0.08038
0.6418 -0.12072 -0.07369
0.65198 -0.13473 -0.07978
0.64008 -0.1201 -0.07559
0.64119 -0.1207 -0.0746
0.65104 -0.134 -0.07907
0.64006 -0.11868 -0.07574
0.65027 -0.13241 -0.07732
0.63715 -0.11729 -0.07578
0.63864 -0.11843 -0.07587
0.65201 -0.13662 -0.08092
0.65092 -0.13555 -0.08032
0.63964 -0.12147 -0.07468
0.6406 -0.12131 -0.07368
0.92298 0.24862 -0.01337
0.6505 -0.13495 -0.07973
0.63903 -0.11942 -0.07614
0.65012 -0.1337 -0.07833
0.64746 -0.13387 -0.07766
0.63744 -0.11897 -0.07626
0.63592 -0.11763 -0.07612
0.65152 -0.138 -0.08191
0.65067 -0.13705 -0.0815
0.63986 -0.12196 -0.07298
0.65013 -0.13633 -0.08073
0.63856 -0.12116 -0.07551
0.63942 -0.12178 -0.07374
0.64732 -0.13615 -0.07959
0.64929 -0.13469 -0.07869
0.63784 -0.12017 -0.07631
0.6344 -0.11891 -0.07653
0.62885 -0.13761 -0.07783
0.65199 -0.14821 -0.08379
0.6514 -0.13936 -0.08268
0.65163 -0.14054 -0.0832
0.65037 -0.13859 -0.08258
0.64998 -0.1378 -0.08197
0.63902 -0.12264 -0.07298
0.64904 -0.13704 -0.08103
0.63838 -0.1218 -0.07455
0.63828 -0.12194 -0.07361
0.63836 -0.1221 -0.073
0.65005 -0.14351 -0.08454
0.6504 -0.14016 -0.08332
0.6494 -0.13949 -0.08317
0.63842 -0.12422 -0.07346
0.64872 -0.13825 -0.08221
0.64556 -0.13783 -0.08084
0.63734 -0.1226 -0.07338
0.63656 -0.12168 -0.07593
0.63715 -0.12223 -0.0746
0.63584 -0.1206 -0.07656
0.63467 -0.12144 -0.07658
0.64913 -0.14104 -0.08405
0.64786 -0.14036 -0.08381
0.64592 -0.13934 -0.08258
0.63623 -0.12329 -0.07336
0.63594 -0.1227 -0.07486
0.6353 -0.12244 -0.07574
0.63575 -0.12271 -0.07382
0.63279 -0.12097 -0.07694
0.62866 -0.11912 -0.07696
0.64179 -0.14312 -0.08437
0.63519 -0.12432 -0.07361
0.63467 -0.12312 -0.07472
0.63488 -0.12322 -0.07369
0.63403 -0.12308 -0.07573
0.63237 -0.12292 -0.07687
0.63101 -0.12207 -0.07744
0.63398 -0.12374 -0.07383
0.63362 -0.12369 -0.07463
0.63404 -0.12853 -0.07478
0.63303 -0.12469 -0.07405
0.63266 -0.12413 -0.07482
0.62753 -0.12522 -0.0777
0.63034 -0.12444 -0.0766
0.62758 -0.12318 -0.07794
0.63206 -0.12548 -0.07419
0.63174 -0.12432 -0.07578
0.63127 -0.1245 -0.07465
0.63022 -0.12476 -0.07555
0.62996 -0.12496 -0.07469
0.63084 -0.12542 -0.0743
0.64068 -0.14935 -0.08598
0.62814 -0.12553 -0.07506
0.6297 -0.12599 -0.07448
0.62776 -0.12592 -0.07663
0.62574 -0.12477 -0.07838
0.62694 -0.12624 -0.07574
0.62776 -0.12729 -0.07483
0.62741 -0.13061 -0.07545
0.6262 -0.12693 -0.07689
0.62581 -0.1269 -0.07595
0.62203 -0.12363 -0.07793
0.62442 -0.1504 -0.08485
0.62538 -0.12742 -0.07519
0.62559 -0.12848 -0.07518
0.62138 -0.12901 -0.07828
0.62391 -0.12882 -0.07677
0.62436 -0.12817 -0.07571
0.62416 -0.12948 -0.07568
0.6229 -0.13087 -0.07588
0.62626 -0.15498 -0.08521
0.62339 -0.13248 -0.07605
0.62153 -0.13172 -0.07623
0.62043 -0.13229 -0.07698
0.61211 -0.13558 -0.0781
0.62168 -0.1336 -0.07641
0.61862 -0.13341 -0.07754
0.6203 -0.13567 -0.07674
0.62056 -0.13443 -0.07662
0.61936 -0.13383 -0.07696
0.61858 -0.13479 -0.07691
0.61643 -0.13504 -0.07774
0.62488 -0.14572 -0.08273
0.61723 -0.13612 -0.07705
0.61466 -0.13696 -0.07777
0.61765 -0.13744 -0.07717
0.61606 -0.13669 -0.07739
0.61526 -0.13922 -0.07766
0.61841 -0.14518 -0.08016
0.61738 -0.1434 -0.07853
0.61477 -0.1452 -0.07861
0.61155 -0.14392 -0.07836
0.62519 -0.16081 -0.0844
0.61799 -0.14933 -0.08322
0.61696 -0.1476 -0.08165
0.61523 -0.14633 -0.07956
0.61832 -0.15507 -0.08452
0.61426 -0.15046 -0.08238
0.61349 -0.14773 -0.08002
0.61271 -0.14654 -0.07894
0.61693 -0.15198 -0.08402
0.61218 -0.15508 -0.08308
0.60917 -0.14949 -0.07974
0.61361 -0.15966 -0.0827
0.60736 -0.15342 -0.08121
0.6025 -0.15538 -0.08052
0.60218 -0.15183 -0.07968
0.62653 -0.12655 -0.07526
0.64163 -0.12117 -0.07309
-0.40814 -0.20506 -0.04839
0.15594 0.07284 -0.15229
0.21327 0.08653 -0.14394
0.21008 0.03497 -0.1443
0.24317 0.05133 -0.13884
0.30866 -0.03439 -0.10957
0.3314 0.03505 -0.11091
0.35109 0.07689 -0.09806
0.31122 0.12849 -0.09948
0.22928 0.14271 -0.13593
0.18086 0.12231 -0.14865
0.27353 0.14793 -0.11428
-0.0214 -0.05842 -0.16295
-0.01895 -0.10582 -0.16881
0.08742 -0.1308 -0.14772
0.20364 -0.14482 -0.1013
0.04999 -0.26485 -0.09966
-0.02157 -0.30688 -0.11528
-0.10258 -0.20783 -0.17028
-0.18245 -0.11176 -0.15501
-0.10246 -0.01818 -0.13939
-0.09071 -0.06814 -0.15879
-0.12607 -0.31541 -0.15417
0.0601 -0.01647 -0.15666
0.14565 -0.14919 -0.12304
0.16584 -0.18319 -0.09255
0.05821 -0.07607 -0.16
0.0436 -0.21096 -0.13452
0.07264 -0.28748 -0.07011
-0.04251 0.01264 -0.13952
0.17676 0.20168 -0.12419
0.11195 0.12802 -0.15217
0.2766 -0.08517 -0.10444
0.25229 -0.11999 -0.09515
0.36291 -0.05041 -0.08918
0.36887 0.00169 -0.09602
0.38675 0.02955 -0.08906
0.47533 -0.08457 -0.07201
0.43549 -0.09588 -0.07797
0.52014 -0.10454 -0.08065
0.40623 -0.11467 -0.07162
0.44115 -0.16092 -0.06249
0.43845 -0.14479 -0.06986
-0.26657 -0.24995 -0.17008
-0.05708 -0.36815 -0.09802
-0.0732 -0.31128 -0.14098
-0.17444 -0.21837 -0.17353
-0.42873 -0.18784 -0.15712
0.23328 -0.04282 -0.13284
0.55635 -0.06967 -0.07632
0.44627 -0.07661 -0.07378
0.50114 -0.13955 -0.08375
0.49427 -0.09444 -0.07617
0.69001 -0.08522 -0.04707
0.69404 -0.10235 -0.04024
0.71521 -0.05222 -0.03112
0.6869 -0.03437 -0.04893
0.71238 -0.00625 -0.03824
0.67628 -0.14 -0.05177
0.69553 -0.06746 -0.044
0.63419 -0.06696 -0.06982
0.46705 -0.06251 -0.06832
0.47158 -0.17718 -0.06688
0.40987 -0.14086 -0.05942
0.5253 -0.08067 -0.07606
0.56895 -0.03842 -0.06998
0.65183 -0.05325 -0.06294
0.66289 -0.03725 -0.05908
0.59109 -0.11471 -0.08025
0.59601 -0.13206 -0.08008
0.55253 -0.09362 -0.08107
0.57338 -0.04651 -0.07208
0.62314 -0.05302 -0.07345
0.46462 -0.04516 -0.06483
0.45862 -0.05325 -0.06787
0.45614 0.00244 -0.05712
0.30184 -0.14475 -0.04146
0.29268 -0.13786 -0.06077
0.28515 -0.11435 -0.08386
0.31738 -0.12626 -0.05477
0.42296 -0.1055 -0.07823
0.40569 -0.12917 -0.06387
0.47794 -0.15254 -0.08121
0.46573 -0.16208 -0.07274
0.68171 -0.15372 -0.03294
0.67532 -0.16719 -0.0368
0.49033 -0.06412 -0.06664
0.46428 -0.10732 -0.07674
0.51484 -0.12307 -0.08239
0.54237 -0.12876 -0.08409
-0.12352 0.0465 -0.07269
-0.19926 -0.03324 -0.10107
-0.24142 -0.06901 -0.09764
-0.23745 -0.03206 -0.03718
-0.14271 0.04721 -0.03296
-0.15405 0.02109 -0.084
-0.23468 -0.04048 -0.06864
-0.26769 -0.07598 -0.0742
-0.15867 -0.0258 -0.12519
-0.1448 -0.06374 -0.14755
-0.1648 -0.00351 -0.10217
-0.18436 -0.0017 -0.0811
-0.26704 -0.08887 -0.09365
-0.28191 -0.09308 -0.08114
-0.24827 -0.09659 -0.11707
-0.22452 -0.10619 -0.13636
0.42128 -0.16948 -0.03771
0.42555 -0.1811 -0.01978
0.42857 -0.1643 -0.05414
0.45836 0.02965 0.01953
0.45836 0.02965 0.01953
0.41656 0.03543 0.05622
0.35894 0.13243 0.0436
0.35894 0.13243 0.0436
0.40735 0.07273 0.04889
0.42748 -0.06021 0.05377
0.43462 -0.01309 0.05081
0.42748 -0.06021 0.05377
0.1024 0.26599 0.06581
0.10113 0.26269 0.05244
0.08907 0.25837 0.03844
0.10113 0.26269 0.05244
0.10418 0.25977 0.09522
0.1024 0.26599 0.06581
0.10418 0.25977 0.09522
0.1024 0.26599 0.06581
0.1024 0.26599 0.06581
0.08907 0.25837 0.03844
0.10418 0.25977 0.09522
0.08907 0.25837 0.03844
0.08907 0.25837 0.03844
0.08031 0.2482 0.02876
0.10418 0.25977 0.09522
0.08307 0.24854 0.11754
0.08307 0.24854 0.11754
0.08031 0.2482 0.02876
0.07571 0.23242 0.0194
0.08307 0.24854 0.11754
0.07247 0.20279 0.13106
0.08031 0.2482 0.02876
0.08307 0.24854 0.11754
0.04875 0.21612 0.02534
0.07571 0.23242 0.0194
0.04875 0.21612 0.02534
0.07247 0.20279 0.13106
0.07247 0.20279 0.13106
0.02642 0.20921 0.04394
0.02642 0.20921 0.04394
0.04875 0.21612 0.02534
0.02642 0.20921 0.04394
0.01669 0.19755 0.05351
0.03555 0.18282 0.1203
0.01669 0.19755 0.05351
0.01765 0.18754 0.10809
0.01023 0.18532 0.09447
0.01023 0.18532 0.09447
0.0075 0.18216 0.08208
0.00669 0.19954 0.0705
0.01669 0.19755 0.05351
0.01302 0.17671 0.0584
0.00669 0.19954 0.0705
0.01302 0.17671 0.0584
0.0075 0.18216 0.08208
0.03555 0.18282 0.1203
0.03555 0.18282 0.1203
0.01765 0.18754 0.10809
0.01765 0.18754 0.10809
0.0075 0.18216 0.08208
0.0075 0.18216 0.08208
0.0075 0.18216 0.08208
-0.07515 0.08414 0.05502
-0.04096 0.11627 0.04118
-0.07515 0.08414 0.05502
-0.26564 -0.07798 0.07238
-0.23279 -0.04233 0.06687
-0.26564 -0.07798 0.07238
-0.3142 -0.12924 0.06693
-0.29396 -0.10928 0.0769
-0.29396 -0.10928 0.0769
-0.3142 -0.12924 0.06693
-0.32206 -0.13608 0.07381
-0.33696 -0.14459 0.0742
-0.32206 -0.13608 0.07381
-0.3142 -0.12924 0.06693
-0.3142 -0.12924 0.06693
-0.3142 -0.12924 0.06693
-0.3142 -0.12924 0.06693
-0.33696 -0.14459 0.0742
-0.33696 -0.14459 0.0742
-0.35299 -0.1424 0.07854
-0.33696 -0.14459 0.0742
-0.35299 -0.1424 0.07854
-0.38782 -0.14613 0.07415
-0.38782 -0.14613 0.07415
-0.42909 -0.11508 0.12211
-0.39111 -0.12035 0.10334
-0.40479 -0.12242 0.09233
-0.39111 -0.12035 0.10334
-0.38782 -0.14613 0.07415
-0.45768 -0.12497 0.08688
-0.40479 -0.12242 0.09233
-0.42909 -0.11508 0.12211
-0.45768 -0.12497 0.08688
-0.45768 -0.12497 0.08688
-0.41031 -0.15609 0.14756
-0.42909 -0.11508 0.12211
-0.42909 -0.11508 0.12211
-0.42909 -0.11508 0.12211
-0.45768 -0.12497 0.08688
-0.45768 -0.12497 0.08688
-0.45768 -0.12497 0.08688
-0.41031 -0.15609 0.14756
-0.55014 -0.07451 0.10529
-0.5534 -0.06763 0.11491
-0.55014 -0.07451 0.10529
-0.56406 -0.07262 0.10009
-0.565 -0.07079 0.13506
-0.56056 -0.06458 0.12528
-0.48347 -0.18605 0.07555
-0.45768 -0.12497 0.08688
-0.56406 -0.07262 0.10009
-0.56564 -0.08184 0.09614
-0.56406 -0.07262 0.10009
-0.565 -0.07079 0.13506
-0.5663 -0.08593 0.14057
-0.565 -0.07079 0.13506
-0.56056 -0.06458 0.12528
-0.56056 -0.06458 0.12528
-0.56056 -0.06458 0.12528
-0.5534 -0.06763 0.11491
-0.5534 -0.06763 0.11491
-0.41031 -0.15609 0.14756
-0.48544 -0.17327 0.14806
-0.5655 -0.08936 0.09343
-0.56564 -0.08184 0.09614
-0.56564 -0.08184 0.09614
-0.5663 -0.08593 0.14057
-0.48347 -0.18605 0.07555
-0.48347 -0.18605 0.07555
-0.4502 -0.25262 0.06295
-0.5663 -0.08593 0.14057
-0.56964 -0.11293 0.14147
-0.5655 -0.08936 0.09343
-0.57135 -0.10857 0.09313
-0.4502 -0.25262 0.06295
-0.42152 -0.30193 0.04569
-0.48544 -0.17327 0.14806
-0.50663 -0.18718 0.13698
-0.48544 -0.17327 0.14806
-0.4502 -0.25262 0.06295
-0.56964 -0.11293 0.14147
-0.5646 -0.11714 0.09296
-0.57135 -0.10857 0.09313
-0.5646 -0.11714 0.09296
-0.56882 -0.1265 0.09543
-0.57135 -0.10857 0.09313
-0.57135 -0.10857 0.09313
-0.42152 -0.30193 0.04569
-0.41165 -0.32616 0.02805
-0.42152 -0.30193 0.04569
-0.42152 -0.30193 0.04569
-0.5137 -0.20166 0.12183
-0.50663 -0.18718 0.13698
-0.48347 -0.18605 0.07555
-0.50663 -0.18718 0.13698
-0.48347 -0.18605 0.07555
-0.52713 -0.17938 0.09264
-0.48347 -0.18605 0.07555
-0.56771 -0.13221 0.13874
-0.56882 -0.1265 0.09543
-0.57486 -0.13649 0.09856
-0.56882 -0.1265 0.09543
-0.41165 -0.32616 0.02805
-0.5137 -0.20166 0.12183
-0.53371 -0.18774 0.11351
-0.53371 -0.18774 0.11351
-0.52713 -0.17938 0.09264
-0.52713 -0.17938 0.09264
-0.52585 -0.19444 0.10093
-0.58232 -0.14825 0.12453
-0.57281 -0.14047 0.13409
-0.57281 -0.14047 0.13409
-0.56771 -0.13221 0.13874
-0.58351 -0.14303 0.10438
-0.57486 -0.13649 0.09856
-0.56771 -0.13221 0.13874
-0.57486 -0.13649 0.09856
-0.52585 -0.19444 0.10093
-0.58232 -0.14825 0.12453
-0.58232 -0.14825 0.12453
-0.58654 -0.14912 0.11338
-0.58654 -0.14912 0.11338
-0.58232 -0.14825 0.12453
-0.58654 -0.14912 0.11338
-0.58351 -0.14303 0.10438
-0.58351 -0.14303 0.10438
0.53137 -0.21465 0.0383
0.54119 -0.21595 0.03649
0.53137 -0.21465 0.0383
0.52962 -0.20152 0.04909
0.52962 -0.20152 0.04909
0.51971 -0.18806 0.05407
0.52962 -0.20152 0.04909
0.51971 -0.18806 0.05407
0.50112 -0.17362 0.05534
0.54119 -0.21595 0.03649
0.54511 -0.22217 0.01571
0.47987 -0.15441 0.05641
0.54511 -0.22217 0.01571
0.66223 -0.10459 0.03741
0.66041 -0.1182 0.04152
0.66223 -0.10459 0.03741
0.66223 -0.10459 0.03741
0.65526 -0.09793 0.03771
0.65526 -0.09793 0.03771
0.66223 -0.10459 0.03741
0.65526 -0.09793 0.03771
0.64696 -0.09017 0.0392
0.64696 -0.09017 0.0392
0.64696 -0.09017 0.0392
0.64629 -0.10509 0.04224
0.64587 -0.10755 0.04295
0.64629 -0.10509 0.04224
0.64465 -0.10869 0.04371
0.64587 -0.10755 0.04295
0.66041 -0.1182 0.04152
0.64159 -0.11155 0.04509
0.64465 -0.10869 0.04371
0.66134 -0.13111 0.04551
0.66134 -0.13111 0.04551
0.66134 -0.13111 0.04551
0.6569 -0.14018 0.05142
0.63371 -0.11478 0.0471
0.64159 -0.11155 0.04509
0.63371 -0.11478 0.0471
0.6569 -0.14018 0.05142
0.6569 -0.14018 0.05142
0.65201 -0.14541 0.05517
0.65201 -0.14541 0.05517
0.64268 -0.15129 0.05672
0.64268 -0.15129 0.05672
0.62382 -0.12537 0.04989
0.63042 -0.12084 0.04886
0.63042 -0.12084 0.04886
0.63371 -0.11478 0.0471
0.62382 -0.12537 0.04989
0.61391 -0.13732 0.05001
0.62639 -0.15232 0.05601
0.62639 -0.15232 0.05601
0.61992 -0.1512 0.05459
0.61885 -0.14943 0.0531
0.61885 -0.14943 0.0531
0.61706 -0.1481 0.0511
0.61885 -0.14943 0.0531
0.61706 -0.1481 0.0511
0.61706 -0.1481 0.0511
0.61658 -0.14695 0.05018
0.61658 -0.14695 0.05018
0.61335 -0.14566 0.05006
0.62639 -0.15232 0.05601
0.61992 -0.1512 0.05459
0.62639 -0.15232 0.05601
0.61992 -0.1512 0.05459
