# .PCD v0.7 - Point Cloud Data file format
VERSION 0.7
FIELDS x y z
SIZE 4 4 4
TYPE F F F
COUNT 1 1 1
WIDTH 1766
HEIGHT 1
VIEWPOINT 0 0 0 1 0 0 0
POINTS 1766
DATA ascii
1.3139 0.34548 -0.11621
1.3202 0.32967001 -0.11727
1.3192 0.32051 -0.11732
1.3289 0.2509 -0.082390003
1.3223 0.31248 -0.11786
1.3265001 0.30467001 -0.11851
1.3255 0.29543999 -0.11856
1.3286 0.28726 -0.1191
1.3276 0.27799001 -0.11915
1.3307 0.26971999 -0.11968
1.3348 0.26161999 -0.12034
1.3372 0.24361999 -0.083258003
1.3362 0.23425999 -0.083309002
1.3392 0.22573 -0.083724
1.3382 0.21634001 -0.083774999
1.3423001 0.20792 -0.084280998
1.3413 0.19848999 -0.084331997
1.3401999 0.18906 -0.084384002
1.3433 0.18031 -0.084799998
1.3423001 0.17084999 -0.084850997
1.3412 0.16139001 -0.084903002
1.3401999 0.15194 -0.084954001
1.3534 0.14444 -0.086283997
1.3523999 0.13488001 -0.086336002
1.3513 0.12531 -0.086387999
1.3554 0.11633 -0.086897001
1.3543 0.10673 -0.086948998
1.3624001 0.098049998 -0.087825
1.3563 0.087903999 -0.087420002
1.3602999 0.078708 -0.087930001
1.3643 0.069435 -0.088440999
1.3631999 0.059726 -0.088494003
1.3622 0.050016999 -0.088546999
1.3662 0.040592998 -0.089057997
1.3651 0.030846 -0.089111
1.364 0.021098999 -0.089163996
1.372 0.011662 -0.090043999
1.3709 0.001846 -0.090098001
1.3749 -0.0078729996 -0.090611003
1.3738 -0.017726 -0.090663999
1.3778 -0.027558001 -0.091178
1.301 0.35561001 -0.011151
1.306 0.36691999 -0.011194
1.3286999 0.25113001 -0.11978
1.3276 0.24184 -0.11983
1.3318 0.23363 -0.12049
1.3307 0.2243 -0.12054
1.3246 0.21396001 -0.11998
1.3236001 0.20467 -0.12004
1.3318 0.19705001 -0.12118
1.342 0.13164 0.019171
1.342 0.12142 0.019171
1.342 0.11119 0.019171
1.368 0.0091199996 -0.011726
1.363 -0.001298 -0.011683
1.2586 0.32067999 -0.15378
1.2595 0.32938999 -0.15373001
1.2535 0.31077 -0.15319
1.2484 0.30092001 -0.15260001
1.2588 0.29539999 -0.15440001
1.2578 0.28667 -0.15445
1.2496001 0.27605 -0.15338001
1.347 0.10135 0.019243
1.3307 0.18769 -0.12123
1.3256 0.17765 -0.1208
1.3195 0.1675 -0.12024
1.3236001 0.15898 -0.1209
1.3307 0.15084 -0.12192
1.3256 0.14089 -0.12149
1.3286 0.13206001 -0.12202
1.3141 0.34531 -0.088733003
1.3099 0.35280001 -0.088193998
1.3173 0.33743 -0.089174002
1.3204 0.32949999 -0.089616001
1.3235 0.3215 -0.090057999
1.3225 0.31231001 -0.090108998
1.3308001 0.30561 -0.091041997
1.3298 0.29633999 -0.091092996
1.3288 0.28707999 -0.091142997
1.3319 0.27882999 -0.091587
1.3309 0.26954001 -0.091637
1.2539999 0.25174001 -0.15464
1.2572 0.24397001 -0.15532
1.2388999 0.21443 -0.15307
1.2184 0.20182 -0.15008999
1.2463 0.18189 -0.15502
1.2473 0.19062001 -0.15497001
1.2341 0.17118999 -0.15331
1.2372 0.16323 -0.15399
1.2363 0.15455 -0.15403999
1.2345999 0.10294 -0.15496001
1.2367001 0.094566002 -0.15549
1.2449 0.095394999 -0.14793
1.2327 0.085524999 -0.15505999
1.244 0.086602002 -0.14797001
1.2277 0.076434001 -0.15447
1.2227 0.067404002 -0.15387
1.2189 0.032809 -0.15406001
1.2199 0.041457999 -0.15401
1.2139 0.023961 -0.15346999
1.2130001 0.015342 -0.15351
1.2079999 0.0065850001 -0.15291999
1.207 -0.0020039999 -0.15296
1.2061 -0.010592 -0.15301
1.3299 0.26025 -0.091688
1.334 0.25211 -0.09223
1.3329999 0.24278 -0.092280999
1.3361 0.23432 -0.092726
1.3309 0.22412001 -0.092382997
1.3381 0.2164 -0.093222
1.3371 0.20701 -0.093272999
1.3412 0.19855 -0.093818001
1.3401999 0.18911999 -0.093869001
1.3391 0.17969 -0.09392
1.3422 0.17091 -0.094366997
1.3412 0.16145 -0.094417997
1.3451999 0.15273 -0.094963998
1.3534 0.1445 -0.095905997
1.3523 0.13494 -0.095958002
1.3513 0.12537 -0.09601
1.3552999 0.11639 -0.096556999
1.3542 0.10679 -0.096610002
1.3573 0.097598001 -0.097057998
1.3562 0.087964997 -0.097111002
1.3602 0.078768 -0.097658999
1.3642 0.069495998 -0.098208003
1.3631999 0.059787001 -0.098260999
1.3621 0.050078001 -0.098314002
1.3661 0.040654998 -0.098862998
1.365 0.030908 -0.098917
1.3638999 0.021160999 -0.098970003
1.3669 0.011551 -0.099421002
1.3709 0.001908 -0.099970996
1.3748 -0.0078110001 -0.10052
1.3737 -0.017664 -0.10058
1.3777 -0.027496001 -0.10113
1.3276 0.12267 -0.12207
1.3225 0.1128 -0.12164
1.3174 0.103 -0.1212
1.3296 0.095007002 -0.12284
1.3286 0.085578002 -0.12289
1.3275 0.076149002 -0.12294
1.3265001 0.066720001 -0.12299
1.3204 0.056930002 -0.12243
1.3194 0.047538999 -0.12248
1.3234 0.038433999 -0.12315
1.301 0.34569001 -0.011151
1.2092 -0.019131999 -0.15369999
1.2082 -0.02775 -0.15375
1.2113 -0.036380999 -0.15444
1.2063 -0.044987001 -0.15384001
1.2054 -0.053606 -0.15389
1.2004 -0.062121 -0.15329
1.1964999 -0.070609003 -0.15286
1.336 0.18195 -0.011451
1.336 0.18195 0.0089069996
1.336 0.17177001 0.0089069996
1.342 0.16232 0.0089469999
1.3224 0.029005 -0.1232
1.3082 0.019029001 -0.12166
1.3152 0.0099750003 -0.12269
1.3142 0.00058400002 -0.12274
1.3091 -0.0088849999 -0.1223
1.3121001 -0.018198 -0.12284
1.3031 -0.027623 -0.12191
1.302 -0.036954001 -0.12196
1.347 0.091082998 0.019243
1.347 0.080820002 0.019243
1.342 0.15209 0.0089469999
1.342 0.14187001 0.0089469999
1.296 -0.046229001 -0.1214
1.314 0.34536999 -0.097889997
1.3056999 0.35157001 -0.096891001
1.3213 0.33871999 -0.098784998
1.3203 0.32956001 -0.098834999
1.3193001 0.32038999 -0.098885
1.3277 0.31378999 -0.099886
1.3308001 0.30566001 -0.10036
1.3298 0.29640001 -0.10041
1.3246 0.28608999 -0.10004
1.3277 0.27788001 -0.10051
1.3308001 0.2696 -0.10099
1.3298 0.26030999 -0.10104
1.334 0.25217 -0.10162
1.3329 0.24284001 -0.10167
1.3319 0.23351 -0.10172
1.3309 0.22418 -0.10177
1.334 0.21565001 -0.10224
1.337 0.20706999 -0.10272
1.336 0.19768 -0.10277
1.3401 0.18918 -0.10335
1.3391 0.17975 -0.10341
1.3421 0.17096999 -0.10388
1.3411 0.16151001 -0.10393
1.3451 0.15279 -0.10452
1.3492 0.14399999 -0.1051
1.3522 0.13500001 -0.10558
1.3512 0.12543 -0.10563
1.3552001 0.11645 -0.10622
1.3542 0.10685 -0.10627
1.3572 0.097658999 -0.10675
1.3521 0.087645002 -0.10637
1.351 0.078042001 -0.10643
1.354 0.068759002 -0.10691
1.358 0.059487 -0.10749
1.3478 0.049233001 -0.10658
1.3468 0.03963 -0.10664
1.3599 0.030720999 -0.10819
1.3538001 0.020802001 -0.1077
1.3578 0.011303 -0.10829
1.3617001 0.001728 -0.10888
1.3607 -0.0080190003 -0.10893
1.3546 -0.017824 -0.10845
1.3485 -0.027554 -0.10797
1.306 0.33706999 -0.011194
1.306 0.32712001 -0.011194
1.342 0.13164 0.0089469999
1.347 0.070556998 0.019243
1.347 0.060293999 0.019243
1.347 0.050030999 0.019243
1.352 0.039916001 0.019314
1.363 0.029856 0.019471001
1.363 0.019471001 0.019471001
1.368 0.0091199996 0.019543
1.363 -0.001298 0.019471001
1.358 -0.01164 -0.01164
1.342 0.12142 0.0089469999
1.347 0.11161 0.0089800004
1.358 -0.021987 -0.01164
1.2460001 0.31704 -0.16054
1.2510999 0.32692 -0.16116001
1.2451 0.30842999 -0.16058999
1.2369 0.29776001 -0.15947001
1.2359 0.28920001 -0.15951
1.235 0.28062999 -0.15955999
1.2299 0.27099001 -0.15894
1.229 0.26245001 -0.15899
1.1998 0.19811 -0.15564001
1.2256 0.19497 -0.16003001
1.2257 0.19492 -0.15141
1.2206 0.18562999 -0.15941
1.2053 0.17449 -0.15711001
1.2074 0.1666 -0.15765999
1.2034 0.15763 -0.15719999
1.2209001 0.15215001 -0.16026001
1.2143 0.092188999 -0.16058999
1.2112 0.10028 -0.15987
1.2134 0.083623998 -0.16063
1.2124 0.075057998 -0.16068
1.2034 0.065789998 -0.15938
1.2065001 0.057606 -0.1601
1.2036999 0.032000002 -0.16023999
1.2157 0.041251998 -0.16204
1.3511 0.11503 0.029029001
1.3522 0.12459 0.029081
1.3532 0.13416 0.029132999
1.3502001 0.14316 0.029185001
1.3369 0.15063 0.029234
1.3380001 0.16006 0.029286001
1.339 0.16948999 0.029337
1.3349 0.17806999 0.029386999
1.3358999 0.18746001 0.029438
1.337 0.19685 0.029488999
1.3339 0.20547 0.029539
1.1987 0.023265 -0.15962
1.1978 0.01476 -0.15966
1.1968 0.0062560001 -0.15971
1.1959 -0.0022489999 -0.15976
1.1950001 -0.010754 -0.15979999
1.194 -0.019259 -0.15985
1.1931 -0.027764 -0.15989
1.1962 -0.036281001 -0.16061001
1.1952 -0.044815999 -0.16066
1.1903 -0.053279001 -0.16003001
1.1894 -0.061783999 -0.16008
1.1884 -0.070289001 -0.16012999
1.347 0.10135 0.0089800004
1.363 -0.011683 0.019471001
1.368 -0.001303 0.050811
1.363 -0.011683 0.050625999
1.301 0.35561001 0.038410001
1.301 0.36552 0.038410001
1.358 -0.01164 0.029747
1.339 0.21562999 0.029591
1.3318 0.22336 0.029638
1.3329 0.23269001 0.029689001
1.3339 0.24202 0.02974
1.3297 0.2502 0.029788001
1.3266 0.25854 0.029836001
1.3277 0.2678 0.029886
1.3286999 0.27706 0.029936001
1.3256 0.28527999 0.029983999
1.3214 0.29317001 0.030029999
1.3224 0.30236 0.03008
1.3234 0.31156 0.030130001
1.342 0.070294999 0.080519997
1.347 0.080820002 0.080820002
1.363 -0.001298 0.029856
1.368 0.0091199996 0.029966
1.363 0.019471001 0.029856
1.3112 0.12986 -0.12927
1.3214 0.14038 -0.13038
1.3174 0.14896999 -0.12969001
1.3102 0.15702 -0.1286
1.3112 0.16625001 -0.12854999
1.3163 0.17617001 -0.12902001
1.3133 0.18471 -0.12845001
1.3142999 0.19395 -0.1284
1.3194 0.20395 -0.12887
1.3163 0.21241 -0.1283
1.3173 0.22164001 -0.12825
1.317 0.33766001 -0.12593
1.3138 0.34553999 -0.12536
1.3200999 0.32973 -0.12649
1.3233 0.32172999 -0.12705
1.3275 0.31395999 -0.12774999
1.3264 0.30473 -0.1278
1.3161 0.29306999 -0.12669
1.3192 0.28496 -0.12726
1.3182 0.27575999 -0.12730999
1.3171999 0.26657 -0.12736
1.3214 0.25856999 -0.12805
1.3203 0.31959 0.030176001
1.3171 0.32756001 0.030222001
1.3181 0.33669001 0.030272
1.3150001 0.34457001 0.030316999
1.3118 0.36113 0.030409999
1.105 0.20100001 -0.21153
1.105 0.20942 -0.21153
1.102 0.21725 -0.21095
1.3108 0.35205999 0.030361
1.342 0.13164 0.029395999
1.342 0.14187001 0.029395999
1.095 0.24924 -0.20961
1.091 0.25663999 -0.20885
1.336 0.15141 0.029265
1.331 0.16099 0.029154999
1.331 0.17113 0.029154999
1.098 0.29175001 -0.21019
1.347 0.091082998 0.080820002
1.342 0.10097 0.080519997
1.342 0.11119 0.080519997
1.336 0.13106 0.1107
1.3487 0.085669003 0.13472
1.3527 0.076595001 0.12543
1.3528 0.076535001 0.13508999
1.3487 0.085729003 0.1251
1.3516001 0.066992 0.12537
1.3516999 0.066932 0.13503
1.3546 0.057673998 0.12561999
1.3507 0.057328999 0.13497999
1.3536 0.048041001 0.12557
1.3496 0.047726002 0.13493
1.3525 0.038407002 0.12552001
1.3485 0.038123 0.13488001
1.3616 0.029258 0.12623
1.3606 0.019487999 0.13594
1.3595001 0.0098400004 0.12612
1.3595001 0.0097789997 0.13589001
1.3605 0.019548999 0.12616999
1.3634 0.00026 0.12645
1.3585 7.0000002e-05 0.13583
1.3624001 -0.0094870003 0.12639
1.347 0.091082998 0.0089800004
1.347 0.080820002 0.0089800004
1.347 0.070556998 0.0089800004
1.3152 0.24818 -0.12746
1.3142 0.23898999 -0.12751
1.3183 0.23086999 -0.12819999
1.326 0.18059 0.029046001
1.326 0.19069 0.029046001
1.326 0.20079 0.029046001
1.326 0.21089999 0.029046001
1.326 0.221 0.029046001
1.358 -0.01164 0.071133003
1.321 0.23023 0.028936001
1.363 -0.001298 0.071395002
1.321 0.2403 0.028936001
1.363 0.009087 0.071395002
1.113 0.083740003 -0.20457999
1.358 0.019400001 0.071133003
1.352 0.029615 0.070818998
1.347 0.039769001 0.070556998
1.109 0.11724 -0.20384
1.109 0.12569 -0.20384
1.109 0.13414 -0.20384
1.109 0.14259 -0.20384
1.109 0.15104 -0.20384
1.105 0.15891001 -0.20310999
1.109 0.16793001 -0.20384
1.109 0.17637999 -0.20384
1.102 0.18367 -0.20255999
1.105 0.19259 -0.20310999
1.105 0.20100001 -0.20310999
1.098 0.20810001 -0.20182
1.098 0.21646 -0.20182
1.095 0.22420999 -0.20127
1.091 0.23171 -0.20054001
1.095 0.24089999 -0.20127
1.098 0.24992999 -0.20182
1.095 0.25759 -0.20127
1.098 0.26666 -0.20182
1.091 0.27327001 -0.20054001
1.102 0.29282001 -0.20255999
1.095 0.28261 -0.20127
1.102 0.29282001 -0.19416
1.321 0.28055999 0.069195002
1.342 0.12142 0.080519997
1.321 0.27048999 0.049066
1.347 0.060293999 0.0089800004
1.352 0.050216999 0.0090129999
1.352 0.039916001 0.0090129999
1.347 0.050030999 0.070556998
1.347 0.060293999 0.070556998
1.342 0.070294999 0.070294999
1.342 0.080519997 0.070294999
1.347 0.091082998 0.070556998
1.347 0.10135 0.070556998
1.342 0.11119 0.070294999
1.311 0.29841 -0.021226
1.316 0.28952 -0.021307001
1.321 0.26043001 -0.021388
1.123 -0.0096260002 -0.19786
1.123 -0.001069 -0.19786
1.363 -0.022067999 -0.022067999
1.352 0.060518 -0.02189
1.358 0.050439999 -0.021987
1.123 0.033155002 -0.19786
1.123 0.041710999 -0.19786
1.12 0.050133001 -0.19733
1.123 0.058823999 -0.19786
1.12 0.067199998 -0.19733
1.12 0.075732999 -0.19733
1.123 0.084491998 -0.19786
1.1160001 0.092468999 -0.19663
1.113 0.1007 -0.1961
1.113 0.10918 -0.1961
1.109 0.11724 -0.1954
1.109 0.12569 -0.1954
1.109 0.13414 -0.1954
1.109 0.14259 -0.1954
1.105 0.15049 -0.19469
1.098 0.15790001 -0.19346
1.102 0.16687 -0.19416
1.102 0.17527001 -0.19416
1.098 0.183 -0.19346
1.105 0.19259 -0.19469
1.105 0.20100001 -0.19469
1.102 0.20886 -0.19416
1.102 0.21725 -0.19416
1.105 0.22626001 -0.19469
1.102 0.23404001 -0.19416
1.105 0.2431 -0.19469
1.109 0.25242999 -0.1954
1.105 0.25994 -0.19469
1.109 0.26932999 -0.1954
1.105 0.2852 -0.19469
1.105 0.27678001 -0.19469
1.321 0.29062 0.069195002
1.311 0.29841 0.068671003
1.306 0.30722001 0.068410002
1.306 0.31716999 0.068410002
1.22 0.30941001 -0.16486
1.2222 0.30188 -0.16542
1.2316999 0.28810999 -0.16743
1.2194 0.27653 -0.16556001
1.2257 0.26995999 -0.16683
1.2248 0.26146001 -0.16688
1.1957999 0.18919 -0.16358
1.1998 0.19815999 -0.16405
1.1948 0.18084 -0.16362
1.1939 0.17249 -0.16367
1.193 0.16415 -0.16371
1.1952 0.15632001 -0.16428
1.1912 0.14746 -0.1638
1.1903 0.13911 -0.16384999
1.209 0.11682 -0.15910999
1.1937 0.10661 -0.16526
1.205 0.10794 -0.15865
1.1946 0.11501 -0.16520999
1.1887 0.097736001 -0.1646
1.1878 0.089367002 -0.16464999
1.1869 0.080999002 -0.16469
1.1900001 0.073012002 -0.16543999
1.1932 0.064965002 -0.16619
1.1841 0.055893 -0.16483
1.336 0.12088 0.1107
1.342 0.11119 0.11119
1.342 0.10097 0.11119
1.363 0.029856 0.009087
1.358 0.019400001 0.0090530002
1.363 0.009087 0.009087
1.321 0.25036001 -0.021388
1.321 0.2403 -0.021388
1.321 0.23023 -0.021388
1.326 0.221 -0.021469001
1.326 0.21089999 -0.021469001
1.326 0.20079 -0.021469001
1.138 -0.035766002 -0.19182999
1.358 0.040093001 -0.021987
1.358 0.029747 -0.021987
1.358 0.019400001 -0.021987
1.363 0.009087 -0.022067999
1.301 0.34569001 0.038410001
1.131 0.016156999 -0.19065
1.127 0.024687 -0.18998
1.123 0.033155002 -0.18931
1.123 0.041710999 -0.18931
1.12 0.050133001 -0.18880001
1.12 0.058667 -0.18880001
1.1160001 0.06696 -0.18813001
1.113 0.075259998 -0.18762
1.1160001 0.083966002 -0.18813001
1.1160001 0.092468999 -0.18813001
1.1160001 0.10097 -0.18813001
1.109 0.10879 -0.18695
1.109 0.11724 -0.18695
1.109 0.12569 -0.18695
1.109 0.13414 -0.18695
1.109 0.14259 -0.18695
1.1160001 0.15199 -0.18813001
1.113 0.16006 -0.18762
1.1160001 0.16899 -0.18813001
1.113 0.17702 -0.18762
1.1160001 0.186 -0.18813001
1.1160001 0.1945 -0.18813001
1.12 0.20373 -0.18880001
1.1160001 0.21151 -0.18813001
1.12 0.2208 -0.18880001
1.12 0.22933 -0.18880001
1.142 0.24254 -0.18381
1.12 0.23786999 -0.18880001
1.142 0.25123999 -0.18381
1.12 0.2464 -0.18880001
1.138 0.25903001 -0.18316001
1.12 0.25492999 -0.18880001
1.1339999 0.26675999 -0.18252
1.12 0.26346999 -0.18880001
1.1339999 0.27540001 -0.18252
1.123 0.27272999 -0.18931
1.127 0.28229001 -0.18998
1.127 0.29087001 -0.18998
1.153 0.30636999 -0.19436
1.301 0.32587001 0.068148002
1.1832 0.047524001 -0.16486999
1.2096 0.049362 -0.16082001
1.1823 0.039156001 -0.16492
1.1813999 0.030787 -0.16497
1.1845 0.022619 -0.16571
1.1835999 0.01422 -0.16576
1.1786 0.0056810002 -0.16509999
1.1777 -0.002687 -0.16515
1.1768 -0.011056 -0.16519
1.1759 -0.019424001 -0.16524
1.1749001 -0.027793 -0.16528
1.174 -0.036161002 -0.16532999
1.1731 -0.044530001 -0.16538
1.1691999 -0.052843999 -0.16489001
1.1683 -0.061190002 -0.16494
1.1673 -0.069536 -0.16497999
1.1594 -0.077596001 -0.1638
1.3263 0.24868999 0.12296
1.3262 0.24875 0.11364
1.3293 0.24038 0.11387
1.3335 0.23210999 0.12355
1.3273 0.2218 0.11377
1.3325 0.22278 0.1235
1.3283 0.23108999 0.11382
1.3314 0.21349999 0.11406
1.3397 0.21504 0.12406
1.3304 0.20417 0.11401
1.3346 0.20488 0.12371
1.3335 0.19558001 0.11424
1.3335 0.19552 0.12365
1.3365999 0.18693 0.11446
1.3365999 0.18686999 0.12391
1.3355 0.17754 0.11441
1.3315001 0.1768 0.12355
1.3345 0.16814999 0.11436
1.3346 0.16809 0.12381
1.3386 0.15953 0.11465
1.3386 0.15947001 0.12414
1.3375 0.15009999 0.1146
1.3376 0.15004 0.12409
1.3457 0.14193 0.11517
1.3458 0.14187001 0.12472
1.3447 0.13243 0.11512
1.3447 0.13237 0.12467
1.3487 0.12355 0.11541
1.3437001 0.12287 0.12462
1.3477 0.11402 0.11536
1.3477 0.11396 0.12495
1.3466001 0.10448 0.1153
1.3508 0.10486 0.1252
1.3496 0.095353998 0.11553
1.3497 0.095293999 0.12515
1.3486 0.085789002 0.11547
1.3475 0.076223999 0.11542
1.3516001 0.067052998 0.11571
1.3546 0.057734001 0.11593
1.3535 0.048101 0.11588
1.3575 0.038748 0.11617
1.3615 0.029318999 0.11646
1.3604 0.019610001 0.11641
1.363 -0.001298 0.009087
1.358 -0.01164 0.0090530002
1.153 -0.080160998 -0.18558
1.15 -0.07119 -0.1851
1.15 -0.062429 -0.1851
1.146 -0.053479999 -0.18445
1.138 -0.044436 -0.18316001
1.138 -0.035766002 -0.18316001
1.1339999 -0.027000001 -0.18252
1.1339999 -0.01836 -0.18252
1.368 -0.001303 -0.022149
1.363 -0.011683 -0.022067999
1.1339999 0.0075599998 -0.18252
1.131 0.016156999 -0.18204001
1.131 0.024774 -0.18204001
1.123 0.033155002 -0.18075
1.123 0.041710999 -0.18075
1.123 0.050268002 -0.18075
1.123 0.058823999 -0.18075
1.123 0.067380004 -0.18075
1.123 0.075935997 -0.18075
1.123 0.084491998 -0.18075
1.127 0.093379997 -0.18139
1.131 0.10233 -0.18204001
1.1339999 0.11124 -0.18252
1.1339999 0.11988 -0.18252
1.131 0.12818 -0.18204001
1.131 0.13680001 -0.18204001
1.131 0.14541 -0.18204001
1.131 0.15403 -0.18204001
1.131 0.16265 -0.18204001
1.1339999 0.17172 -0.18252
1.131 0.17987999 -0.18204001
1.131 0.1885 -0.18204001
1.142 0.19903 -0.18381
1.1339999 0.20627999 -0.18252
1.1339999 0.21492 -0.18252
1.146 0.23466 -0.18445
1.138 0.22435001 -0.18316001
1.153 0.23609 -0.17679
1.138 0.28503999 -0.18316001
1.146 0.29578 -0.18445
1.165 0.30956 -0.18751
1.306 0.33706999 0.068410002
1.347 0.060293999 0.029506
1.347 0.070556998 0.029506
1.3594 0.0099010002 0.11635
1.3583 0.00019200001 0.1163
1.3572 -0.0095170001 0.11625
1.347 0.070556998 0.060293999
1.342 0.080519997 0.060070001
1.161 -0.080716997 -0.17802
1.15 -0.07119 -0.17633
1.142 -0.061994001 -0.17511
1.138 -0.053107001 -0.17449
1.1339999 -0.04428 -0.17388
1.138 -0.035766002 -0.17449
1.138 -0.027094999 -0.17449
1.138 -0.018425001 -0.17449
1.1339999 -0.0097200004 -0.17388
1.1339999 -0.00108 -0.17388
1.138 0.0075869998 -0.17449
1.142 0.016314 -0.17511
1.142 0.025015 -0.17511
1.1339999 0.03348 -0.17388
1.138 0.042268999 -0.17449
1.138 0.050939001 -0.17449
1.1339999 0.0594 -0.17388
1.1339999 0.068039998 -0.17388
1.1339999 0.076679997 -0.17388
1.138 0.085620999 -0.17449
1.138 0.094291002 -0.17449
1.142 0.10332 -0.17511
1.142 0.11202 -0.17511
1.15 0.12157 -0.17633
1.146 0.12988 -0.17572001
1.146 0.13861001 -0.17572001
1.15 0.14786001 -0.17633
1.15 0.15662 -0.17633
1.15 0.16538 -0.17633
1.15 0.17414001 -0.17633
1.153 0.18337999 -0.17679
1.1569999 0.19283 -0.17741001
1.153 0.20095 -0.17679
1.153 0.20974 -0.17679
1.153 0.21852 -0.17679
1.1569999 0.22809 -0.17741001
1.173 0.28487 -0.17986
1.173 0.29381001 -0.17986
1.161 0.29965001 -0.17802
1.177 0.31275001 -0.18047
1.301 0.34569001 0.068148002
1.342 0.090745002 0.11119
1.342 0.080519997 0.11119
1.347 0.070556998 0.11161
1.3082 0.35929999 0.11221
1.303 0.34904 0.10282
1.303 0.34898001 0.11188
1.3039 0.35804 0.10287
1.3061 0.34129 0.10302
1.3062 0.34123001 0.11211
1.3092999 0.33348 0.10322
1.301 0.33096999 0.11178
1.3177 0.32710001 0.10373
1.3177 0.32703999 0.11292
1.3125 0.3168 0.10343
1.3167 0.31790999 0.11287
1.3115 0.30770001 0.10338
1.3157001 0.30877 0.11282
1.3146 0.29969999 0.10358
1.3147 0.29964 0.11277
1.3178 0.29164001 0.10378
1.322 0.29265001 0.11327
1.3168 0.28246999 0.10373
1.3262 0.28476 0.11357
1.3199 0.27432001 0.10392
1.3250999 0.27553001 0.11352
1.3241 0.26635 0.10418
1.3283 0.26728001 0.11374
1.3272001 0.25806999 0.10438
1.3231 0.25705999 0.11342
1.3262 0.24880999 0.10433
1.3250999 0.23954999 0.10428
1.3282 0.23115 0.10447
1.3272001 0.22184999 0.10442
1.3262 0.21256 0.10437
1.3303 0.20423 0.10463
1.3375 0.19638 0.10507
1.3365 0.18698999 0.10502
1.3355 0.1776 0.10496
1.3395 0.16902 0.10522
1.3385 0.15959001 0.10517
1.3375 0.15016 0.10512
1.3405 0.14128999 0.10531
1.3446 0.13248999 0.10556
1.3486 0.12361 0.10582
1.3476 0.11408 0.10576
1.342 0.090745002 0.060070001
1.347 0.10135 0.060293999
1.153 -0.071376003 -0.16801
1.1569999 -0.062808998 -0.16858999
1.153 -0.053807002 -0.16801
1.153 -0.045022 -0.16801
1.15 -0.036143001 -0.16756999
1.1569999 -0.027548 -0.16858999
1.1569999 -0.018732 -0.16858999
1.161 -0.0099510001 -0.16917001
1.1569999 -0.001102 -0.16858999
1.153 0.0076870001 -0.16801
1.1569999 0.016528999 -0.16858999
1.161 0.025431 -0.16917001
1.1569999 0.034159001 -0.16858999
1.1569999 0.042973999 -0.16858999
1.161 0.051968999 -0.16917001
1.165 0.061023999 -0.16976
1.165 0.069899999 -0.16976
1.161 0.078506 -0.16917001
1.161 0.087351002 -0.16917001
1.165 0.096529 -0.16976
1.161 0.10504 -0.16917001
1.165 0.11428 -0.16976
1.161 0.12273 -0.16917001
1.161 0.13158 -0.16917001
1.161 0.14043 -0.16917001
1.165 0.14979 -0.16976
1.165 0.15865999 -0.16976
1.165 0.16754 -0.16976
1.169 0.17702 -0.17034
1.173 0.18656 -0.17092
1.169 0.19483 -0.17034
1.165 0.20304 -0.16976
1.169 0.21265 -0.17034
1.169 0.22155 -0.17034
1.177 0.23204 -0.17151
1.193 0.24428 -0.17384
1.181 0.25982001 -0.17208999
1.1849999 0.26973 -0.17267001
1.177 0.27688 -0.17151
1.1849999 0.28779 -0.17267001
1.181 0.30480999 -0.17208999
1.181 0.29581001 -0.17208999
1.206 0.32045001 -0.17573
1.301 0.36552 0.068148002
1.3506 0.10498 0.10596
1.3496 0.095413998 0.1059
1.3536 0.086319 0.10616
1.3526 0.076715998 0.1061
1.3515 0.067112997 0.10605
1.3545001 0.057794999 0.10624
1.3585 0.04848 0.10649
1.3625 0.039089002 0.10674
1.3665 0.029623 0.10699
1.3604 0.019671001 0.10664
1.3644 0.010129 0.10689
1.3582 0.00025300001 0.10653
1.3622 -0.0093649998 0.10678
1.342 0.11119 0.060070001
1.169 -0.072366998 -0.16143
1.169 -0.06346 -0.16143
1.169 -0.054552998 -0.16143
1.169 -0.045646999 -0.16143
1.173 -0.036866002 -0.16199
1.177 -0.028023999 -0.16254
1.173 -0.018990999 -0.16199
1.169 -0.01002 -0.16143
1.169 -0.001113 -0.16143
1.173 0.0078199999 -0.16199
1.177 0.016814001 -0.16254
1.173 0.025694 -0.16199
1.173 0.034630999 -0.16199
1.173 0.043568999 -0.16199
1.177 0.052685 -0.16254
1.177 0.061652001 -0.16254
1.177 0.07062 -0.16254
1.177 0.079588003 -0.16254
1.177 0.088555001 -0.16254
1.189 0.098517001 -0.16419999
1.189 0.10758 -0.16419999
1.1849999 0.11624 -0.16364001
1.189 0.12569 -0.16419999
1.189 0.13474999 -0.16419999
1.1849999 0.14332999 -0.16364001
1.181 0.15184 -0.16309001
1.189 0.16192999 -0.16419999
1.181 0.16983999 -0.16309001
1.1849999 0.17944001 -0.16364001
1.1849999 0.18847001 -0.16364001
1.197 0.19949999 -0.1653
1.197 0.20862 -0.1653
1.197 0.21774 -0.1653
1.202 0.22781 -0.16599
1.202 0.23697001 -0.16599
1.202 0.24612001 -0.16599
1.202 0.25527999 -0.16599
1.202 0.26444 -0.16599
1.202 0.27360001 -0.16599
1.206 0.28369999 -0.16654
1.193 0.28973001 -0.16474999
1.206 0.31126001 -0.16654
1.193 0.29881999 -0.16474999
1.321 0.25036001 0.028936001
1.321 0.26043001 0.028936001
1.321 0.27048999 0.028936001
1.321 0.28055999 0.028936001
1.2168 0.31658 -0.16411
1.2043999 0.30485001 -0.17061
1.2053 0.31316999 -0.17056
1.2004 0.29563001 -0.17011
1.2085 0.24099 -0.16452999
1.1931 0.22928999 -0.17047
1.2148 0.23427001 -0.16579001
1.2048 0.20739 -0.16471
1.1925 0.19675 -0.17120001
1.2006 0.20658 -0.17242999
1.1844 0.18702 -0.16997001
1.1835001 0.17876001 -0.17001
1.1867 0.17124 -0.17079
1.1858 0.16294999 -0.17083
1.1808 0.15397 -0.17015
1.1768 0.14522 -0.16964
1.179 0.13744999 -0.17024
1.1821001 0.12977999 -0.17101
1.1964999 0.1318 -0.16512001
1.1812 0.12149 -0.17106
1.1996 0.12397 -0.16587
1.1762 0.11266 -0.17037
1.1794 0.1049 -0.17115
1.1744 0.096134 -0.17046
1.1705 0.087539002 -0.16996001
1.1696 0.079299003 -0.17
1.1717 0.071346 -0.1706
1.347 0.060293999 0.11161
1.347 0.050030999 0.11161
1.347 0.039769001 0.11161
1.363 0.029856 0.11293
1.342 0.12142 0.060070001
1.336 0.17177001 -0.011451
1.336 0.16159 -0.011451
1.181 -0.064111002 -0.15409
1.1849999 -0.055300001 -0.15460999
1.193 -0.046583999 -0.15566
1.193 -0.037494 -0.15566
1.193 -0.028405 -0.15566
1.193 -0.019315001 -0.15566
1.197 -0.01026 -0.15617999
1.193 -0.001136 -0.15566
1.193 0.0079530003 -0.15566
1.197 0.017100001 -0.15617999
1.197 0.026219999 -0.15617999
1.193 0.035222001 -0.15566
1.193 0.044310998 -0.15566
1.193 0.053401001 -0.15566
1.197 0.062700003 -0.15617999
1.202 0.072120003 -0.15683
1.197 0.080940001 -0.15617999
1.202 0.090435997 -0.15683
1.202 0.099593997 -0.15683
1.206 0.10911 -0.15735
1.202 0.11791 -0.15683
1.197 0.12654001 -0.15617999
1.202 0.13623001 -0.15683
1.202 0.14538001 -0.15683
1.21 0.15557 -0.15787999
1.21 0.16479 -0.15787999
1.21 0.17400999 -0.15787999
1.21 0.18323 -0.15787999
1.21 0.19245 -0.15787999
1.214 0.20232999 -0.1584
1.21 0.21089 -0.15787999
1.214 0.22082999 -0.1584
1.223 0.23179001 -0.15956999
1.219 0.24032 -0.15905
1.219 0.24959999 -0.15905
1.214 0.25782999 -0.1584
1.219 0.26818001 -0.15905
1.21 0.27542001 -0.15787999
1.219 0.28676 -0.15905
1.223 0.29701 -0.15956999
1.227 0.30733001 -0.16009
1.227 0.31668001 -0.16009
1.316 0.28952 0.028827
1.311 0.29841 0.028717
1.1708 0.063083 -0.17064001
1.1698999 0.054821 -0.17069
1.169 0.046558 -0.17072999
1.1720999 0.038555998 -0.17151
1.1672 0.030033 -0.17082
1.1663001 0.021771001 -0.17087001
1.1694 0.013678 -0.17163999
1.1644 0.0052450001 -0.17095999
1.1635 -0.0030169999 -0.171
1.1626 -0.01128 -0.17104
1.1617 -0.019541999 -0.17109001
1.1608 -0.027805001 -0.17113
1.1599 -0.036067002 -0.17117999
1.153 -0.044266999 -0.17012
1.1521 -0.052483998 -0.17016999
1.1542 -0.060777999 -0.17076001
1.1533 -0.069017999 -0.17081
1.1494 -0.077134997 -0.17030001
1.342 0.13164 0.060070001
1.336 0.14123 0.059801999
1.3049001 0.36704999 0.10292
1.3039 0.3581 0.093810998
1.3006999 0.36576 0.093641996
1.3071001 0.35038 0.093979999
1.3102 0.34259999 0.094149001
1.3092 0.33353001 0.094099
1.3134 0.32596001 0.094322003
1.3166 0.31801999 0.094489001
1.3156 0.30889001 0.094439998
1.3187 0.30085999 0.094607003
1.3177 0.29168999 0.094557002
1.3167 0.28253001 0.094507001
1.3157001 0.27337 0.094457
1.3188 0.26517999 0.094622999
1.3271 0.25813001 0.095059
1.3261 0.24887 0.095008999
1.3250999 0.23961 0.094958
1.3282 0.23120999 0.095123
1.3272001 0.22191 0.095073
1.3354 0.21442001 0.095505998
1.3344001 0.20506001 0.095455997
1.3374 0.19644 0.095619
1.3364 0.18705 0.095568001
1.3354 0.17766 0.095517002
1.3395 0.16908 0.095734
1.3384 0.15965 0.095683001
1.3415 0.15081 0.095844999
1.363 0.019471001 0.11293
1.363 0.009087 0.11293
1.3507 0.14274 0.096327998
1.3444999 0.13255 0.096009001
1.3486 0.12367 0.096225001
1.3516001 0.1146 0.096386001
1.3506 0.10504 0.096334003
1.3494999 0.095473997 0.096281998
1.3485 0.085909002 0.09623
1.3525 0.076775998 0.096444003
1.3514 0.067172997 0.096391
1.3544 0.057854999 0.096551999
1.3635 0.048859 0.097029999
1.3624001 0.03915 0.096977003
1.3614 0.029441001 0.096923999
1.3654 0.019936999 0.097135998
1.3643 0.01019 0.097083002
1.3631999 0.000443 0.097029999
1.3621 -0.0093040001 0.096977003
1.347 0.080820002 0.029506
1.342 0.15209 -0.011503
1.342 0.14187001 -0.011503
1.342 0.13164 -0.011503
1.214 -0.056653 -0.14915
1.21 -0.047247998 -0.14866
1.214 -0.038153999 -0.14915
1.219 -0.029023999 -0.14975999
1.219 -0.019735999 -0.14975999
1.219 -0.010449 -0.14975999
1.219 -0.001161 -0.14975999
1.219 0.0081270002 -0.14975999
1.219 0.017414 -0.14975999
1.219 0.026702 -0.14975999
1.214 0.035842001 -0.14915
1.214 0.045090999 -0.14915
1.214 0.054341 -0.14915
1.219 0.063851997 -0.14975999
1.219 0.073140003 -0.14975999
1.227 0.082969002 -0.15075
1.227 0.092317 -0.15075
1.227 0.10167 -0.15075
1.227 0.11101 -0.15075
1.227 0.12036 -0.15075
1.227 0.12971 -0.15075
1.24 0.14053001 -0.15233999
1.232 0.14901 -0.15136001
1.227 0.15775999 -0.15075
1.232 0.16779 -0.15136001
1.232 0.17716999 -0.15136001
1.227 0.1858 -0.15075
1.227 0.19515 -0.15075
1.24 0.20667 -0.15233999
1.24 0.21611001 -0.15233999
1.24 0.22555999 -0.15233999
1.2359999 0.23424999 -0.15185
1.2359999 0.24367 -0.15185
1.2359999 0.25308999 -0.15185
1.245 0.26440999 -0.15296
1.245 0.2739 -0.15296
1.24 0.28224999 -0.15233999
1.24 0.29170001 -0.15233999
1.245 0.30236 -0.15296
1.245 0.32133001 -0.15296
1.249 0.31284001 -0.15345
1.263 0.33559999 -0.15516999
1.311 0.30840001 0.028717
1.347 0.091082998 0.029506
1.342 0.10097 0.029395999
1.306 0.31716999 -0.011194
1.342 0.12142 -0.011503
1.227 -0.057259999 -0.14139999
1.232 -0.048106998 -0.14196999
1.227 -0.038562998 -0.14139999
1.227 -0.029214 -0.14139999
1.2359999 -0.020011 -0.14242999
1.2359999 -0.010594 -0.14242999
1.2359999 -0.001177 -0.14242999
1.2359999 0.0082400003 -0.14242999
1.2359999 0.017657001 -0.14242999
1.24 0.027162001 -0.1429
1.24 0.03661 -0.1429
1.245 0.046243001 -0.14347
1.24 0.055505 -0.1429
1.24 0.064952001 -0.1429
1.24 0.0744 -0.1429
1.245 0.084186003 -0.14347
1.249 0.093971997 -0.14393
1.249 0.10349 -0.14393
1.245 0.11264 -0.14347
1.245 0.12213 -0.14347
1.245 0.13161001 -0.14347
1.249 0.14155 -0.14393
1.249 0.15107 -0.14393
1.2589999 0.16187 -0.14508
1.2539999 0.17078 -0.14451
1.2539999 0.18034001 -0.14451
1.2589999 0.19065 -0.14508
1.263 0.20088001 -0.14555
1.2589999 0.20983 -0.14508
1.249 0.21768001 -0.14393
1.249 0.2272 -0.14393
1.249 0.23672 -0.14393
1.268 0.24998 -0.14612
1.263 0.25861001 -0.14555
1.268 0.26930001 -0.14612
1.263 0.27785999 -0.14555
1.2589999 0.28657001 -0.14508
1.263 0.29710999 -0.14555
1.249 0.30333 -0.14393
1.2589999 0.31535 -0.14508
1.268 0.32725999 -0.14612
1.296 0.34437001 -0.14935
1.306 0.31716999 0.028608
1.358 -0.001293 0.11252
1.301 0.35561001 0.1078
1.301 0.34569001 0.097884998
1.301 0.34569001 0.1078
1.3038 0.35815999 0.084752999
1.3006001 0.36581001 0.084614001
1.307 0.35044 0.084890999
1.3102 0.34266001 0.085028999
1.3092 0.33359 0.084980004
1.3134 0.32602 0.085164003
1.3164999 0.31808001 0.085300997
1.3155 0.30893999 0.085251004
1.3187 0.30091 0.085387997
1.3176 0.29175001 0.085337996
1.3207999 0.28363001 0.085473999
1.3198 0.27443999 0.085423999
1.3239 0.26646999 0.085606001
1.327 0.25819001 0.085741997
1.3302 0.24985 0.085877001
1.301 0.35561001 0.097884998
1.301 0.33577999 0.097884998
1.3291 0.24056 0.085826002
1.3281 0.23126 0.085775003
1.3322001 0.22301 0.085956
1.3353 0.21448 0.086089998
1.3343 0.20512 0.086038999
1.3374 0.1965 0.086172
1.3363 0.18711001 0.086121
1.3353 0.17772 0.086070001
1.3394001 0.16914 0.086249001
1.3384 0.15971 0.086197004
1.3465 0.1516 0.086558998
1.3455 0.14210001 0.086507
1.3444 0.13260999 0.086456001
1.3485 0.12373 0.086632997
1.3515 0.11466 0.086764
1.3505 0.1051 0.086712003
1.3494 0.095533997 0.086659998
1.3535 0.086439997 0.086836003
1.3523999 0.076837003 0.086782999
1.3514 0.067233004 0.086731002
1.3544 0.057916 0.086860999
1.3634 0.048920002 0.087261997
1.3624001 0.039211001 0.08721
1.3613 0.029502001 0.087157004
1.3653001 0.019997999 0.087329999
1.3642 0.010251 0.087277003
1.3631001 0.000504 0.087223999
1.3661 -0.0091690002 0.087352
1.311 0.30840001 -0.011237
1.347 0.11161 -0.011546
1.347 0.10135 -0.011546
1.249 -0.048769999 -0.13441999
1.2589999 -0.039569002 -0.13549
1.2539999 -0.029857 -0.13495
1.2539999 -0.020303 -0.13495
1.2539999 -0.010749 -0.13495
1.2589999 -0.001199 -0.13549
1.2539999 0.0083600003 -0.13495
1.2539999 0.017914001 -0.13495
1.263 0.027666001 -0.13592
1.263 0.037289001 -0.13592
1.2589999 0.046762999 -0.13549
1.2589999 0.056355 -0.13549
1.263 0.066156998 -0.13592
1.263 0.075779997 -0.13592
1.2589999 0.085132003 -0.13549
1.263 0.095026001 -0.13592
1.272 0.10539 -0.13688999
1.268 0.11472 -0.13646001
1.268 0.12438 -0.13646001
1.272 0.13447 -0.13688999
1.272 0.14416 -0.13688999
1.268 0.15336999 -0.13646001
1.268 0.16303 -0.13646001
1.272 0.17323001 -0.13688999
1.268 0.18234999 -0.13646001
1.272 0.19261999 -0.13688999
1.277 0.2031 -0.13743
1.2819999 0.21367 -0.13797
1.2869999 0.22431 -0.13851
1.277 0.23229 -0.13743
1.2819999 0.24297 -0.13797
1.2819999 0.25274 -0.13797
1.2819999 0.26249999 -0.13797
1.2819999 0.27226999 -0.13797
1.277 0.28094 -0.13743
1.272 0.28953001 -0.13688999
1.277 0.30039999 -0.13743
1.2819999 0.31134 -0.13797
1.291 0.32336 -0.13894001
1.2869999 0.33217001 -0.13851
1.311 0.34834999 -0.14109001
1.306 0.32712001 0.028608
1.306 0.33706999 0.028608
1.1867 0.29967001 -0.17575
1.1803 0.30565 -0.17438
1.1827 0.29058999 -0.17523
1.1849 0.28330001 -0.17584001
1.1895 0.26058 -0.16901
1.1822 0.25874001 -0.17598
1.1709 0.24793001 -0.17411999
1.1683 0.2236 -0.17426001
1.1746 0.21710999 -0.17563
1.1984 0.21427999 -0.17184
1.1727999 0.20078 -0.17572001
1.1737 0.20895 -0.17567
1.1719 0.19261999 -0.17576
1.342 0.11119 0.029395999
1.342 0.12142 0.029395999
1.326 0.221 0.069457002
1.347 0.091082998 -0.011546
1.347 0.080820002 -0.011546
1.277 -0.040134002 -0.1277
1.272 -0.030285999 -0.12720001
1.277 -0.020675 -0.1277
1.2869999 -0.011031 -0.1287
1.2869999 -0.001226 -0.1287
1.2869999 0.0085800001 -0.1287
1.291 0.018443 -0.12909999
1.2869999 0.028191 -0.1287
1.2819999 0.03785 -0.12819999
1.2819999 0.047617 -0.12819999
1.2869999 0.057608999 -0.1287
1.2869999 0.067414001 -0.1287
1.2869999 0.07722 -0.1287
1.2869999 0.087026 -0.1287
1.2869999 0.096831001 -0.1287
1.291 0.10697 -0.12909999
1.2869999 0.11644 -0.1287
1.291 0.12664001 -0.12909999
1.2869999 0.13605 -0.1287
1.296 0.14688 -0.1296
1.301 0.15736 -0.1301
1.301 0.16727 -0.1301
1.301 0.17718001 -0.1301
1.301 0.18709999 -0.1301
1.301 0.19701 -0.1301
1.301 0.20692 -0.1301
1.301 0.21683 -0.1301
1.301 0.22675 -0.1301
1.301 0.23666 -0.1301
1.301 0.24657001 -0.1301
1.301 0.25648001 -0.1301
1.301 0.26640001 -0.1301
1.301 0.27631 -0.1301
1.306 0.28731999 -0.13060001
1.306 0.29727 -0.13060001
1.301 0.33577999 0.1078
1.301 0.32587001 0.097884998
1.301 0.32587001 0.1078
1.306 0.30722001 -0.13060001
1.306 0.31716999 -0.13060001
1.301 0.32587001 -0.1301
1.336 0.16159 0.080159999
1.306 0.33706999 -0.13060001
1.331 0.17113 0.079860002
1.1669 0.18365 -0.17505001
1.166 0.17551 -0.17509
1.1691999 0.16813 -0.1759
1.1641999 0.15925001 -0.17518
1.1674 0.15180001 -0.17599
1.1665 0.14363 -0.17603
1.1655999 0.13547 -0.17607
1.1677999 0.12774999 -0.17669
1.1638 0.11914 -0.17615999
1.166 0.11138 -0.17678
1.1619999 0.10281 -0.17625
1.1611 0.094648004 -0.1763
1.1602 0.086484 -0.17634
1.1593 0.078319997 -0.17639001
1.1584001 0.070156001 -0.17643
1.1575 0.061992001 -0.17647
1.1566 0.053828001 -0.17652
1.1517 0.045372002 -0.1758
1.1508 0.037238002 -0.17584001
1.154 0.029335 -0.17665
1.149 0.020971 -0.17592999
1.1481 0.012837 -0.17598
1.1513 0.0048429999 -0.17679
1.1504 -0.0033209999 -0.17682999
1.1394 -0.011683 -0.17496
1.1415 -0.019734999 -0.17557999
1.1437 -0.027832 -0.1762
1.1468 -0.035978001 -0.17701
1.1418999 -0.044100001 -0.17629001
1.141 -0.052234001 -0.17633
1.1441 -0.06047 -0.17714
1.1461999 -0.068733998 -0.17776
1.1523 -0.077206001 -0.17914
1.306 0.31716999 0.098260999
1.306 0.31716999 0.10821
1.301 0.30603999 0.097884998
1.306 0.29727 0.098260999
1.316 0.28952 0.099013001
1.311 0.27843001 0.098637
1.316 0.26947001 0.099013001
1.3037 0.35821 0.075694002
1.3047 0.36722001 0.075742997
1.3069 0.35049 0.075801998
1.3101 0.34270999 0.075910002
1.3091 0.33364999 0.075860001
1.3133 0.32607001 0.076006003
1.3164001 0.31814 0.076113001
1.3196 0.31014001 0.076219
1.3186001 0.30096999 0.076168999
1.3217 0.29288 0.076274998
1.3259 0.28499001 0.076420002
1.329 0.27677 0.076525003
1.3279999 0.26751 0.076474003
1.327 0.25825 0.076424003
1.326 0.24899 0.076373003
1.3291 0.24061 0.076477997
1.3279999 0.23131999 0.076426998
1.3322001 0.22307 0.076569997
1.3311 0.21374001 0.076518998
1.3342 0.20518 0.076622002
1.3372999 0.19656 0.076724999
1.3363 0.18717 0.076673999
1.3352 0.17777 0.076623
1.3393 0.16919 0.076762997
1.3383 0.15977 0.076711997
1.3414 0.15093 0.076814003
1.3454 0.14216 0.076953001
1.3494999 0.13333 0.077092998
1.336 0.15141 0.059801999
1.3525 0.12429 0.077192999
1.3515 0.11472 0.077141002
1.306 -0.041046001 -0.12065
1.301 -0.030975999 -0.12019
1.296 -0.020982999 -0.11973
1.306 -0.011194 -0.12065
1.306 -0.001244 -0.12065
1.301 0.0086730001 -0.12019
1.306 0.018657001 -0.12065
1.306 0.028608 -0.12065
1.311 0.038706001 -0.12111
1.306 0.048509002 -0.12065
1.311 0.058683001 -0.12111
1.311 0.068671003 -0.12111
1.316 0.078960001 -0.12157
1.316 0.088987 -0.12157
1.316 0.099013001 -0.12157
1.316 0.10904 -0.12157
1.316 0.11907 -0.12157
1.316 0.12909 -0.12157
1.316 0.13912 -0.12157
1.316 0.14915 -0.12157
1.316 0.15917 -0.12157
1.316 0.1692 -0.12157
1.311 0.17855 -0.12111
1.311 0.18853 -0.12111
1.311 0.19852 -0.12111
1.321 0.2101 -0.12204
1.306 0.21766999 -0.12065
1.306 0.22762001 -0.12065
1.311 0.23848 -0.12111
1.316 0.24941 -0.12157
1.311 0.25845 -0.12111
1.311 0.26844001 -0.12111
1.311 0.27843001 -0.12111
1.316 0.28952 -0.12157
1.311 0.29841 -0.12111
1.311 0.30840001 -0.12111
1.311 0.31839001 -0.12111
1.306 0.32712001 -0.12065
1.306 0.34702 -0.12065
1.306 0.33706999 -0.12065
1.1584001 -0.085784003 -0.18053
1.331 0.16099 0.059578001
1.331 0.17113 0.059578001
1.331 0.18127 0.059578001
1.3555 0.10571 0.07728
1.3494 0.095593996 0.077036999
1.3534 0.086499996 0.077174999
1.3523 0.076897003 0.077123001
1.3552999 0.067610003 0.077221997
1.3594 0.058332998 0.077358998
1.3583 0.048661999 0.077306002
1.3623 0.039271999 0.077441998
1.3612 0.029563 0.07739
1.3602 0.019854 0.077336997
1.3641 0.010312 0.077472001
1.3631001 0.00056499999 0.077418998
1.3660001 -0.0091080004 0.077515997
1.321 -0.031452 -0.11197
1.331 -0.02155 -0.11282
1.326 -0.011366 -0.11239
1.331 -0.001268 -0.11282
1.331 0.0088729998 -0.11282
1.331 0.019014001 -0.11282
1.321 0.26043001 0.09939
1.321 0.25036001 0.09939
1.321 0.2403 0.09939
1.331 0.029154999 -0.11282
1.331 0.039296001 -0.11282
1.331 0.049437001 -0.11282
1.326 0.059354 -0.11239
1.331 0.069719002 -0.11282
1.336 0.080159999 -0.11324
1.331 0.090001002 -0.11282
1.331 0.10014 -0.11282
1.331 0.11028 -0.11282
1.331 0.12042 -0.11282
1.326 0.13007 -0.11239
1.326 0.14018001 -0.11239
1.336 0.15141 -0.11324
1.331 0.16099 -0.11282
1.331 0.17113 -0.11282
1.326 0.18059 -0.11239
1.326 0.19069 -0.11239
1.321 0.20004 -0.11197
1.326 0.21089999 -0.11239
1.331 0.22183 -0.11282
1.326 0.23109999 -0.11239
1.326 0.24121 -0.11239
1.326 0.25130999 -0.11239
1.321 0.26043001 -0.11197
1.321 0.27048999 -0.11197
1.321 0.28055999 -0.11197
1.321 0.29062 -0.11197
1.311 0.29841 -0.11112
1.311 0.30840001 -0.11112
1.311 0.31839001 -0.11112
1.311 0.32837 -0.11112
1.311 0.33836001 -0.11112
1.301 0.34569001 -0.11028
1.321 0.23023 0.09939
1.321 0.22017001 0.09939
1.321 0.2101 0.09939
1.326 0.20079 0.099766001
1.326 0.19069 0.099766001
1.326 0.18059 0.099766001
1.3078001 0.35958001 0.066762
1.3069 0.35055 0.066712998
1.3099999 0.34277001 0.06679
1.309 0.3337 0.066740997
1.3174 0.32732999 0.066974998
1.3164001 0.31819001 0.066924997
1.3154 0.30906001 0.066875003
1.3185 0.30103001 0.066950999
1.3217 0.29293999 0.067025997
1.3257999 0.28505 0.067132004
1.3289 0.27682999 0.067207001
1.3279001 0.26756999 0.067157
1.331 0.25926 0.067230999
1.33 0.24997 0.06718
1.329 0.24067 0.067129999
1.3279999 0.23138 0.067079
1.3321 0.22313 0.067183003
1.3311 0.2138 0.067133002
1.3301001 0.20446999 0.067082003
1.3372 0.19662 0.067277998
1.3362 0.18722001 0.067226999
1.3403 0.17868 0.067328997
1.3393 0.16925 0.067277998
1.3382 0.15983 0.067226999
1.3372 0.1504 0.067175001
1.3454 0.14222001 0.067400001
1.3494 0.13338999 0.067501001
1.3523999 0.12435 0.067570999
1.3514 0.11478 0.067519002
1.3503 0.10522 0.067466997
1.3544 0.096162997 0.067566998
1.3533 0.086560003 0.067515001
1.3523 0.076957002 0.067461997
1.3552999 0.067670003 0.067530997
1.3644 0.058750998 0.067781001
1.3582 0.048723001 0.067576997
1.3572 0.039051998 0.067524999
1.3662 0.029867999 0.067772999
1.3651 0.020121001 0.067720003
1.321 0.23023 0.069195002
1.3641 0.010374 0.067667
1.367 0.00073099998 0.067734003
1.3619 -0.0091199996 0.067561001
1.352 -0.02189 -0.1043
1.352 -0.011589 -0.1043
1.352 -0.001288 -0.1043
1.352 0.0090129999 -0.1043
1.347 0.019243 -0.10391
1.347 0.029506 -0.10391
1.347 0.039769001 -0.10391
1.347 0.050030999 -0.10391
1.342 0.060070001 -0.10353
1.347 0.070556998 -0.10391
1.342 0.080519997 -0.10353
1.342 0.090745002 -0.10353
1.342 0.10097 -0.10353
1.342 0.11119 -0.10353
1.347 0.12187 -0.10391
1.347 0.13213 -0.10391
1.342 0.14187001 -0.10353
1.342 0.15209 -0.10353
1.342 0.16232 -0.10353
1.336 0.17177001 -0.10306
1.331 0.18127 -0.10268
1.336 0.19213 -0.10306
1.331 0.20155001 -0.10268
1.331 0.21168999 -0.10268
1.326 0.221 -0.10229
1.326 0.23109999 -0.10229
1.326 0.24121 -0.10229
1.321 0.25036001 -0.10191
1.321 0.26043001 -0.10191
1.321 0.27048999 -0.10191
1.321 0.28055999 -0.10191
1.321 0.29062 -0.10191
1.311 0.29841 -0.10113
1.311 0.30840001 -0.10113
1.311 0.31839001 -0.10113
1.311 0.32837 -0.10113
1.311 0.33836001 -0.10113
1.306 0.35697001 -0.10075
1.306 0.34702 -0.10075
1.301 0.34569001 0.028498
1.1749001 0.31185001 -0.1732
1.1667 0.30160999 -0.18000001
1.1676 0.30963999 -0.17996
1.1658 0.29357001 -0.18005
1.1681 0.28644001 -0.18068001
1.1672 0.27838001 -0.18073
1.1569999 0.26776001 -0.17900001
1.1574 0.24457 -0.17972
1.1552 0.25178 -0.17907999
1.1628 0.23808999 -0.18095
1.1628 0.23804 -0.17284
1.1557 0.22855 -0.17981
1.1723 0.23244999 -0.17478
1.1517 0.21981999 -0.17926
1.321 0.2403 0.069195002
1.321 0.25036001 0.069195002
1.363 -0.022067999 -0.094760999
1.368 -0.011726 -0.095109001
1.363 -0.001298 -0.094760999
1.363 0.009087 -0.094760999
1.363 0.019471001 -0.094760999
1.331 0.17113 0.10014
1.331 0.16099 0.10014
1.331 0.15085 0.10014
1.358 0.029747 -0.094412997
1.336 0.14123 0.10052
1.352 0.039916001 -0.093996003
1.352 0.050216999 -0.093996003
1.358 0.060787 -0.094412997
1.347 0.070556998 -0.093649
1.347 0.080820002 -0.093649
1.347 0.091082998 -0.093649
1.347 0.10135 -0.093649
1.347 0.11161 -0.093649
1.347 0.12187 -0.093649
1.347 0.13213 -0.093649
1.342 0.14187001 -0.093300998
1.342 0.15209 -0.093300998
1.342 0.16232 -0.093300998
1.342 0.17253999 -0.093300998
1.336 0.18195 -0.092883997
1.342 0.19299001 -0.093300998
1.331 0.20155001 -0.092536002
1.326 0.21089999 -0.092188999
1.326 0.221 -0.092188999
1.326 0.23109999 -0.092188999
1.326 0.24121 -0.092188999
1.321 0.25036001 -0.091840997
1.321 0.26043001 -0.091840997
1.321 0.27048999 -0.091840997
1.321 0.28055999 -0.091840997
1.321 0.29062 -0.091840997
1.316 0.29955 -0.091493003
1.311 0.30840001 -0.091146
1.311 0.31839001 -0.091146
1.311 0.32837 -0.091146
1.306 0.33706999 -0.090797998
1.301 0.35561001 -0.090449996
1.306 0.34702 -0.090797998
1.1569999 0.21322 -0.18049
1.1633 0.20675001 -0.18190999
1.1624 0.19867 -0.18196
1.1574 0.18974 -0.18121
1.1535 0.18108 -0.18065999
1.1495 0.17246 -0.18010999
1.1486 0.16445 -0.18016
1.1508 0.15696999 -0.18079001
1.15 0.14894 -0.18084
1.1490999 0.1409 -0.18088
1.1482 0.13286 -0.18092
1.1473 0.12483 -0.18097
1.1464 0.11679 -0.18100999
1.1454999 0.10876 -0.18105
1.1447001 0.10072 -0.1811
1.1438 0.092688002 -0.18114001
1.1398 0.084321 -0.18059
1.1390001 0.076307997 -0.18063
1.1411 0.068581998 -0.18127
1.1372 0.060283002 -0.18072
1.1394 0.052510999 -0.18136001
1.1415 0.044695001 -0.182
1.1406 0.036635999 -0.18204001
1.1337 0.028232001 -0.18089999
1.1358 0.020369999 -0.18154
1.138 0.012462 -0.18217
1.1341 0.0042989999 -0.18162
1.1362 -0.0036539999 -0.18226001
1.1353 -0.011712 -0.18231
1.1344 -0.01977 -0.18234999
1.1406 -0.027795 -0.18379
1.1427 -0.035914999 -0.18443
1.1418 -0.044048999 -0.18447
1.1449 -0.052255001 -0.18531001
1.147 -0.060495 -0.18595
1.1531 -0.068914004 -0.18739
1.1552 -0.077275999 -0.18803
1.1543 -0.085538998 -0.18807
1.336 0.13106 0.10052
1.336 0.12088 0.10052
1.336 0.1107 0.10052
1.342 0.10097 0.10097
1.342 0.090745002 0.10097
1.347 0.080820002 0.10135
1.347 0.070556998 0.10135
1.347 0.060293999 0.10135
1.321 0.26043001 0.069195002
1.321 0.27048999 0.069195002
1.311 0.29841 -0.011237
1.3068 0.35060999 0.057624001
1.3036 0.35833001 0.057576999
1.3058 0.34156999 0.057574999
1.3142 0.33529001 0.057739999
1.3173 0.32738 0.057785999
1.3163 0.31825 0.057737
1.3153 0.30912 0.057686999
1.3185 0.30109 0.057732001
1.3216 0.29300001 0.057776999
1.368 -0.022149 -0.084686004
1.368 -0.011726 -0.084686004
1.363 -0.001298 -0.084376
1.363 0.009087 -0.084376
1.363 0.019471001 -0.084376
1.358 0.029747 -0.084067002
1.358 0.040093001 -0.084067002
1.358 0.050439999 -0.084067002
1.352 0.060518 -0.083695002
1.347 0.070556998 -0.083385997
1.347 0.080820002 -0.083385997
1.347 0.091082998 -0.083385997
1.347 0.10135 -0.083385997
1.347 0.11161 -0.083385997
1.342 0.12142 -0.083076
1.342 0.13164 -0.083076
1.347 0.1424 -0.083385997
1.347 0.15266 -0.083385997
1.342 0.16232 -0.083076
1.342 0.17253999 -0.083076
1.336 0.18195 -0.082704999
1.336 0.19213 -0.082704999
1.331 0.20155001 -0.082395002
1.326 0.21089999 -0.082085997
1.331 0.22183 -0.082395002
1.331 0.23197 -0.082395002
1.326 0.24121 -0.082085997
1.326 0.25130999 -0.082085997
1.321 0.26043001 -0.081776001
1.321 0.27048999 -0.081776001
1.321 0.28055999 -0.081776001
1.321 0.29062 -0.081776001
1.311 0.29841 -0.081156999
1.311 0.30840001 -0.081156999
1.311 0.31839001 -0.081156999
1.306 0.32712001 -0.080848001
1.306 0.33706999 -0.080848001
1.301 0.35561001 -0.080537997
1.306 0.34702 -0.080848001
1.331 0.19141001 0.059578001
1.326 0.20079 0.059354
1.3257999 0.28511 0.057845
1.3289 0.27689001 0.057889
1.3279001 0.26763001 0.057838999
1.3268 0.25836 0.057789002
1.33 0.25002 0.057831999
1.3289 0.24073 0.057781
1.3331 0.23252 0.057847999
1.332 0.22318999 0.057797
1.331 0.21385001 0.057746001
1.33 0.20452 0.057696
1.3331 0.19593 0.057737999
1.3361 0.18728 0.057780001
1.3401999 0.17873999 0.057844002
1.347 0.050030999 0.10135
1.347 0.039769001 0.10135
1.358 0.029747 0.10217
1.363 0.019471001 0.10255
1.358 0.0090530002 0.10217
1.3392 0.16931 0.057792999
1.3382 0.15988 0.057742
1.3371 0.15046 0.057689998
1.3504 0.14297999 0.057960998
1.3493 0.13345 0.057909001
1.3523999 0.12441 0.057948999
1.3513 0.11484 0.057895999
1.3554 0.10583 0.057959002
1.3543 0.096222997 0.057906002
1.3533 0.086620003 0.057854
1.3522 0.077017002 0.057801999
1.3552001 0.067731 0.057840001
1.3592 0.058455002 0.057900999
1.3631999 0.049102999 0.057960998
1.3622 0.039393999 0.057907999
1.3611 0.029685 0.057854999
1.3651 0.020182 0.057914998
1.364 0.010435 0.057861999
1.3629 0.000688 0.057808999
1.3619 -0.0090589998 0.057755999
1.321 0.29062 -0.011323
1.321 0.28055999 -0.011323
1.321 0.27048999 -0.011323
1.374 -0.022245999 -0.074588999
1.368 -0.011726 -0.074262999
1.368 -0.001303 -0.074262999
1.363 0.009087 -0.073991001
1.358 0.019400001 -0.073720001
1.358 0.029747 -0.073720001
1.352 0.039916001 -0.073394001
1.358 0.050439999 -0.073720001
1.358 0.060787 -0.073720001
1.347 0.070556998 -0.073123001
1.347 0.080820002 -0.073123001
1.347 0.091082998 -0.073123001
1.352 0.10172 -0.073394001
1.347 0.11161 -0.073123001
1.347 0.12187 -0.073123001
1.347 0.13213 -0.073123001
1.342 0.14187001 -0.072851002
1.342 0.15209 -0.072851002
1.342 0.16232 -0.072851002
1.336 0.17177001 -0.072526
1.336 0.18195 -0.072526
1.336 0.19213 -0.072526
1.331 0.20155001 -0.072254002
1.326 0.21089999 -0.071983002
1.331 0.22183 -0.072254002
1.326 0.23109999 -0.071983002
1.326 0.24121 -0.071983002
1.326 0.25130999 -0.071983002
1.321 0.26043001 -0.071710996
1.321 0.27048999 -0.071710996
1.321 0.28055999 -0.071710996
1.321 0.29062 -0.071710996
1.306 0.29727 -0.070896998
1.311 0.30840001 -0.071168996
1.311 0.31839001 -0.071168996
1.306 0.32712001 -0.070896998
1.306 0.33706999 -0.070896998
1.306 0.35697001 -0.070896998
1.306 0.34702 -0.070896998
1.358 -0.001293 0.10217
1.352 -0.011589 0.10172
1.301 0.36552 0.097884998
1.301 0.35561001 0.087972
1.301 0.36552 0.087972
1.301 0.34569001 0.087972
1.301 0.33577999 0.087972
1.301 0.32587001 0.087972
1.306 0.31716999 0.088310003
1.3067 0.35066 0.048535001
1.3077 0.35969999 0.048583999
1.3099 0.34288001 0.048551001
1.3183 0.33656999 0.048648
1.3173 0.32743999 0.048597999
1.3204 0.31946999 0.048613001
1.3194 0.31031001 0.048563
1.3184 0.30114001 0.048514001
1.3267 0.29440001 0.048608001
1.3298 0.28621 0.048622001
1.3288 0.27695 0.048572
1.3237 0.2667 0.048457999
1.3268 0.25841999 0.048471
1.3299 0.25007999 0.048484001
1.3289 0.24078999 0.048432998
1.3278 0.2315 0.048383001
1.332 0.22324 0.048411001
