# .PCD v0.7 - Point Cloud Data file format
VERSION 0.7
FIELDS x y z
SIZE 4 4 4
TYPE F F F
COUNT 1 1 1
WIDTH 1501
HEIGHT 1
VIEWPOINT 0 0 0 1 0 0 0
POINTS 1501
DATA ascii
1.068 0.18614 -0.30208999
1.0625 0.20541 -0.30053502
1.064 0.21787 -0.30096
1.061 0.22533999 -0.30011001
1.011 0.38418001 -0.30136999
1.008 0.39456001 -0.30048001
1.0779999 0.17967001 -0.29671001
1.095 0.17416 -0.29304001
1.074 0.18718 -0.29561001
1.095 0.1825 -0.29304001
1.0779999 0.19609 -0.29671001
1.0929999 0.19464999 -0.29250503
1.0779999 0.20431 -0.29671001
1.0880001 0.2062 -0.29117
1.074 0.21582 -0.29561001
1.074 0.2281 -0.29561001
1.074 0.23627999 -0.29561001
1.0880001 0.23521501 -0.29117
1.071 0.24378 -0.29477999
1.058 0.25694001 -0.29925999
1.071 0.25194001 -0.29477999
1.068 0.26751 -0.29394999
1.071 0.26010001 -0.29477999
1.068 0.27564999 -0.29394999
1.085 0.27177 -0.29036999
1.068 0.28378001 -0.29394999
1.085 0.28003001 -0.29036999
1.068 0.29192001 -0.29394999
1.085 0.29657 -0.29036999
1.068 0.30412501 -0.29394999
1.085 0.30483001 -0.29036999
1.068 0.31632999 -0.29394999
1.085 0.31310001 -0.29036999
1.068 0.32447001 -0.29394999
1.0625 0.33493501 -0.29244
1.061 0.34659001 -0.29203001
1.064 0.35567999 -0.29284999
1.006 0.42443502 -0.29988
1.003 0.43463001 -0.29899001
1 0.44476002 -0.29809999
1 0.45618999 -0.29809999
0.99699998 0.47001001 -0.29719999
0.99699998 0.48521 -0.29719999
0.99400002 0.49132001 -0.29631001
0.99400002 0.50647002 -0.29631001
0.991 0.52003998 -0.29541001
0.98799998 0.55610001 -0.29451999
1.109 0.17637999 -0.28834
1.1215 0.17409 -0.28304499
1.105 0.18416999 -0.28729999
1.12 0.18667001 -0.28266999
1.105 0.19259 -0.28729999
1.123 0.19572 -0.28342
1.0880001 0.2062 -0.28288001
1.102 0.20046 -0.28652
1.123 0.20428 -0.28342
1.0779999 0.21252 -0.28027999
1.081 0.21311 -0.28929999
1.0779999 0.22073001 -0.28849
1.081 0.22958 -0.28106001
1.081 0.23782 -0.28106001
1.081 0.24606 -0.28518
1.0829999 0.25476003 -0.28569999
1.0829999 0.263015 -0.28569999
1.0845001 0.27575999 -0.28197002
1.0829999 0.28777 -0.28569999
1.0880001 0.29739001 -0.28288001
1.0880001 0.30568001 -0.28288001
1.0779999 0.31929001 -0.28849
1.085 0.31310001 -0.28209999
1.0779999 0.32751 -0.284385
1.085 0.32137001 -0.28209999
1.0779999 0.33572 -0.28849
1.085 0.33790001 -0.28209999
1.074 0.34266001 -0.28742
1.081 0.34489 -0.28106001
1.074 0.35492998 -0.28742
1.081 0.35313001 -0.28106001
1.0745 0.36737502 -0.28345001
1.081 0.36136001 -0.28106001
1.071 0.37434 -0.28661999
1.068 0.38957 -0.28582001
1.0745 0.38374999 -0.28345001
1.064 0.39621001 -0.28475001
1.0779999 0.39320999 -0.28027999
1.064 0.40432 -0.28475001
1.0779999 0.40964001 -0.28027999
1.061 0.41530502 -0.28393999
1.0779999 0.41784999 -0.28027999
1.064 0.42864001 -0.28475001
1.03 0.57973999 -0.28349999
1.023 0.59139001 -0.28156999
1.138 0.17233001 -0.27853999
1.1569999 0.1752 -0.27437001
1.1339999 0.18468 -0.27756
1.153 0.18337999 -0.27342999
1.1339999 0.19764 -0.27756
1.153 0.19216999 -0.27342999
1.081 0.20488 -0.27282
1.15 0.20043001 -0.27271
1.074 0.21991 -0.27924001
1.0880001 0.21449 -0.27458999
1.0829999 0.22587499 -0.273325
1.081 0.23782 -0.27282
1.081 0.24606 -0.27282
1.081 0.25429001 -0.27282
1.081 0.26253 -0.27282
1.0779999 0.27823001 -0.27206999
1.081 0.27076 -0.27282
1.081 0.28724 -0.27282
1.081 0.29547 -0.27282
1.0779999 0.30287001 -0.27206999
1.081 0.31195 -0.27282
1.0779999 0.32751 -0.27206999
1.081 0.32018 -0.27282
1.081 0.33665001 -0.27282
1.0779999 0.34393001 -0.27206999
1.081 0.35313001 -0.27282
1.076 0.363785 -0.27156499
1.074 0.37538999 -0.27515
1.0779999 0.38499999 -0.27206999
1.076 0.396575 -0.275655
1.076 0.40477502 -0.27156499
1.074 0.4163 -0.27105999
1.074 0.42449 -0.27515
1.073 0.43498668 -0.27625334
1.072 0.44547001 -0.27327335
1.0725 0.45657998 -0.27476001
1.0725 0.46474999 -0.27476001
1.064 0.47727999 -0.27664
1.071 0.47226 -0.27846
1.064 0.48539001 -0.27664
1.071 0.48857999 -0.2703
1.061 0.4921 -0.27586001
1.064 0.50565505 -0.27664
1.058 0.51489002 -0.27508
1.071 0.51305997 -0.2703
1.0565 0.52622998 -0.27469
1.0420001 0.53489006 -0.27886
1.0549999 0.53754997 -0.27430001
1.0420001 0.54680002 -0.27886
1.0549999 0.54558998 -0.27430001
1.0375 0.55629003 -0.27765501
1.0549999 0.55361998 -0.27430001
1.036 0.56733 -0.27724999
1.0534999 0.56487 -0.27390999
1.039 0.57688999 -0.27805999
1.048 0.57389998 -0.27248001
1.0450001 0.58818495 -0.27566999
1.052 0.58411002 -0.27351999
1.039 0.59271997 -0.27805999
1.048 0.59785998 -0.27248001
1.165 0.17641 -0.2674
1.169 0.18593 -0.26831001
1.1849999 0.18847001 -0.26295999
1.169 0.19483 -0.26831001
1.1849999 0.19750001 -0.26295999
1.102 0.20886 -0.26973
1.1339999 0.20627999 -0.26028001
1.161 0.20235001 -0.26648
1.181 0.20582999 -0.26207
1.102 0.21725 -0.26973
1.1160001 0.21151 -0.26464999
1.098 0.22483 -0.26875001
1.1145 0.22395501 -0.26429498
1.095 0.23255999 -0.26800999
1.109 0.23553 -0.26299
1.1339999 0.2322 -0.26028001
1.098 0.245745 -0.26875001
1.113 0.24485999 -0.26394001
1.095 0.25759 -0.26800999
1.1160001 0.25402001 -0.26464999
1.098 0.26666 -0.26875001
1.109 0.26932999 -0.26299
1.113 0.26181999 -0.26394001
1.098 0.27502 -0.26875001
1.105 0.27678001 -0.26203999
1.095 0.28261 -0.26800999
1.105 0.2852 -0.26203999
1.0929999 0.29458499 -0.26752502
1.109 0.29468 -0.26299
1.0880001 0.30568001 -0.26629999
1.1035 0.30581999 -0.26168501
1.091 0.31483001 -0.26704001
1.102 0.31801 -0.26133001
1.091 0.32314 -0.26704001
1.105 0.32729 -0.26203999
1.0880001 0.33882999 -0.26629999
1.091 0.33146 -0.26704001
1.102 0.3348 -0.26133001
1.0880001 0.34711999 -0.26629999
1.098 0.34195 -0.26038
1.085 0.35442999 -0.26557001
1.098 0.35031 -0.26038
1.0779999 0.36857 -0.26385
1.085 0.36269999 -0.26557001
1.102 0.36838001 -0.26133001
1.0779999 0.37678999 -0.26385
1.102 0.37678 -0.26133001
1.081 0.38607001 -0.26459
1.098 0.38378 -0.26038
1.081 0.39431 -0.26459
1.0779999 0.40553501 -0.26385
1.074 0.4163 -0.26287001
1.0779999 0.42607 -0.26385
1.0779999 0.43428001 -0.26385
1.0725 0.44431502 -0.26250499
1.071 0.45594001 -0.26214001
1.066 0.465985 -0.26091999
1.0666666 0.47576332 -0.26650336
1.068 0.48721001 -0.26141
1.066 0.49441999 -0.26498502
1.066 0.50660002 -0.26498502
1.064 0.51780999 -0.26853001
1.064 0.52591997 -0.26447999
1.061 0.53252 -0.26778001
1.064 0.54212999 -0.26853001
1.064 0.55294329 -0.26583001
1.061 0.56485999 -0.26778001
1.058 0.57132 -0.26701999
1.0645 0.58293998 -0.264595
1.064 0.59482503 -0.26853001
1.074 0.59632999 -0.26287001
1.064 0.60698998 -0.26853001
1.0779999 0.60676003 -0.26385
1.197 0.19949999 -0.25650001
1.202 0.19118001 -0.25757
1.214 0.19307999 -0.25088999
1.15 0.20919 -0.25519001
1.173 0.20444 -0.25136
1.219 0.20317 -0.25193
1.131 0.21435 -0.25959
1.15 0.21795 -0.25519001
1.131 0.22296999 -0.25959
1.146 0.22593001 -0.2543
1.127 0.23935001 -0.25867
1.146 0.23466 -0.2543
1.127 0.24794 -0.25867
1.146 0.24338999 -0.2543
1.127 0.25652999 -0.25867
1.142 0.25558999 -0.25342
1.123 0.26416999 -0.25775999
1.146 0.26958001 -0.2543
1.123 0.27272999 -0.25775999
1.142 0.27733999 -0.25342
1.12 0.28479999 -0.25707
1.138 0.28503999 -0.25253001
1.123 0.29840001 -0.25775999
1.138 0.29370999 -0.25253001
1.12 0.30612999 -0.25707
1.138 0.30238 -0.25253001
1.12 0.31467 -0.25707
1.1345 0.31440499 -0.25174999
1.12 0.32319999 -0.25707
1.131 0.32637 -0.25097001
1.12 0.33173001 -0.25707
1.1339999 0.33588001 -0.25163999
1.12 0.34453499 -0.25707
1.138 0.34573999 -0.25253001
1.095 0.35769999 -0.25966999
1.1160001 0.35606 -0.25615001
1.131 0.35223001 -0.25097001
1.113 0.36357999 -0.25545999
1.1324999 0.36562997 -0.25130498
1.109 0.37494498 -0.25454
1.131 0.37808001 -0.25097001
1.113 0.38902 -0.25545999
1.131 0.38668999 -0.25097001
1.095 0.39524001 -0.25966999
1.105 0.39464 -0.25362
1.131 0.39531001 -0.25097001
1.091 0.40627 -0.25872001
1.131 0.40393001 -0.25097001
1.0880001 0.41343999 -0.25801
1.081 0.42725 -0.25635001
1.091 0.42289001 -0.25872001
1.109 0.42564499 -0.25454
1.081 0.43549001 -0.25635001
1.105 0.43674001 -0.25362
1.081 0.44372001 -0.25635001
1.098 0.44233999 -0.25202
1.074 0.45721999 -0.25468999
1.081 0.45196 -0.25635001
1.098 0.45488501 -0.25202
1.0779999 0.46713001 -0.25564
1.091 0.46445 -0.25040999
1.081 0.47667 -0.25635001
1.095 0.4745 -0.25132999
1.074 0.48585999 -0.25468999
1.091 0.48108 -0.25040999
1.0779999 0.49998999 -0.25564
1.0645 0.50184 -0.25647998
1.091 0.50602001 -0.25040999
1.0645 0.51805496 -0.25647998
1.071 0.51305997 -0.25398001
1.091 0.51433003 -0.25040999
1.068 0.52789998 -0.25327
1.0645 0.534275 -0.25647998
1.0625 0.54136503 -0.25600499
1.0643333 0.55581003 -0.25509334
1.0559999 0.5648734 -0.25577998
1.061 0.57293999 -0.25161001
1.061 0.58102 -0.25161001
1.081 0.60021001 -0.25635001
1.085 0.61070001 -0.25729999
1.109 0.61576003 -0.25454
1.2359999 0.19657999 -0.24602
1.177 0.20513 -0.24325
1.232 0.20533 -0.24523
1.2539999 0.20900001 -0.24005
1.165 0.21191999 -0.24964
1.181 0.21483 -0.24406999
1.163 0.22484 -0.24921501
1.181 0.22383 -0.24406999
1.161 0.23773 -0.24879
1.177 0.23204 -0.24325
1.161 0.24657001 -0.24879
1.175 0.24506 -0.242835
1.1569999 0.25454 -0.24793001
1.177 0.25894001 -0.24325
1.1569999 0.26335999 -0.24793001
1.177 0.26791 -0.24325
1.1515 0.27526 -0.24675
1.169 0.27498999 -0.24158999
1.15 0.28805 -0.24642999
1.177 0.28584 -0.24325
1.153 0.29758 -0.24707
1.173 0.29381001 -0.24242
1.1670001 0.30563501 -0.24118
1.15 0.31433001 -0.24642999
1.138 0.32839 -0.24386001
1.153 0.34151 -0.24707
1.165 0.34505999 -0.24077
1.1535 0.35482499 -0.24718
1.165 0.35394001 -0.24077
1.146 0.36563 -0.24557
1.165 0.36280999 -0.24077
1.146 0.37436 -0.24557
1.165 0.37169001 -0.24077
1.138 0.38042 -0.24386001
1.1339999 0.39636001 -0.243
1.142 0.39046001 -0.24471
1.1339999 0.405 -0.243
1.142 0.41655999 -0.24471
1.123 0.42673999 -0.2492
1.1339999 0.42228001 -0.243
1.12 0.43413001 -0.24853
1.1339999 0.43524 -0.243
1.1235 0.44405001 -0.245015
1.109 0.45522001 -0.24608999
1.12 0.45120001 -0.24853
1.131 0.45563 -0.24236
1.113 0.46533999 -0.24698
1.125 0.46606499 -0.24107
1.113 0.47382 -0.24698
1.127 0.47977999 -0.24150001
1.0880001 0.48805001 -0.24972001
1.1055 0.48324999 -0.245315
1.123 0.48662999 -0.24064
1.085 0.49496999 -0.24902999
1.102 0.49432999 -0.24454001
1.123 0.49518999 -0.24064
1.098 0.50926 -0.24365
1.102 0.50272 -0.24454001
1.1339999 0.50867999 -0.243
1.081 0.51784998 -0.24811999
1.098 0.51762998 -0.24365
1.081 0.52609003 -0.24811999
1.102 0.52790999 -0.24454001
1.0779999 0.53284001 -0.24743
1.098 0.53435999 -0.24365
1.0779999 0.54516 -0.24743
1.0929999 0.54440999 -0.24254501
1.081 0.55903 -0.24811999
1.091 0.55589002 -0.2421
1.081 0.56726998 -0.24811999
1.091 0.56419998 -0.2421
1.0779999 0.57391 -0.24743
1.091 0.57252002 -0.2421
1.0745 0.58431 -0.24662501
1.12 0.61333001 -0.24853
1.131 0.61505002 -0.24236
1.12 0.62186998 -0.24853
1.193 0.20792 -0.23746
1.202 0.21865 -0.23926
1.21 0.21089 -0.23163
1.263 0.2105 -0.23215
1.193 0.2261 -0.23746
1.223 0.22247 -0.23412
1.189 0.2344 -0.23667
1.206 0.23774999 -0.23085999
1.189 0.24346 -0.23667
1.202 0.24612001 -0.23010001
1.193 0.26245999 -0.23746
1.189 0.27063999 -0.23667
1.193 0.28064001 -0.23746
1.202 0.28275999 -0.23010001
1.189 0.29782 -0.23667
1.197 0.29069999 -0.23826
1.206 0.29289001 -0.23085999
1.181 0.30480999 -0.23508
1.202 0.30107 -0.23010001
1.161 0.37926 -0.23994
1.1569999 0.38677001 -0.23910999
1.177 0.38449001 -0.23428001
1.1569999 0.39557999 -0.23910999
1.181 0.39478999 -0.23508
1.202 0.39265001 -0.23010001
1.1569999 0.40439999 -0.23910999
1.1515 0.41563499 -0.23798001
1.146 0.42675 -0.23683999
1.15 0.43700001 -0.23767
1.146 0.44420999 -0.23683999
1.146 0.45293999 -0.23683999
1.1535 0.46469998 -0.23398501
1.138 0.47578999 -0.23519
1.146 0.47040999 -0.23683999
1.161 0.47656 -0.23108999
1.1339999 0.48276001 -0.23435999
1.165 0.48708001 -0.23188999
1.131 0.4901 -0.23374
1.161 0.49425 -0.23108999
1.1339999 0.50003999 -0.23435999
1.161 0.50309998 -0.23108999
1.12 0.51520002 -0.23999999
1.138 0.51914001 -0.23519
1.142 0.51226997 -0.23601
1.113 0.52469999 -0.2385
1.1339999 0.52596003 -0.23435999
1.113 0.53318 -0.2385
1.127 0.53988999 -0.23291001
1.1339999 0.53460002 -0.23435999
1.105 0.54619002 -0.23679
1.113 0.54166001 -0.2385
1.123 0.54653001 -0.23209
1.105 0.5546 -0.23679
1.123 0.55508 -0.23209
1.105 0.56301999 -0.23679
1.12 0.56212997 -0.23147
1.1035 0.57486498 -0.23646501
1.1160001 0.57713002 -0.23063999
1.123 0.5722 -0.23209
1.113 0.58406001 -0.23002
1.24 0.21611001 -0.22792
1.2539999 0.21855 -0.22093999
1.268 0.21133 -0.22341
1.232 0.22411001 -0.22645
1.2589999 0.22902 -0.22182
1.232 0.23349001 -0.22645
1.249 0.23672 -0.22006001
1.223 0.24111 -0.22480001
1.2589999 0.2482 -0.22182
1.227 0.25123999 -0.22553
1.249 0.25575 -0.22006001
1.232 0.26165 -0.22645
1.197 0.27246001 -0.22914
1.249 0.27478001 -0.22006001
1.214 0.28558001 -0.22314
1.219 0.29604 -0.22406
1.227 0.30733001 -0.22553
1.2589999 0.33453 -0.22182
1.219 0.38892001 -0.22406
1.223 0.39951 -0.22480001
1.1949999 0.404015 -0.228755
1.214 0.40582001 -0.22314
1.249 0.49364999 -0.22006001
1.15 0.50709999 -0.2289
1.146 0.51406002 -0.22811
1.146 0.54462504 -0.22811
1.165 0.56696999 -0.22301
1.161 0.57387 -0.22225
1.142 0.58187997 -0.22731
1.272 0.212 -0.21442001
1.268 0.22099 -0.21375
1.268 0.23066001 -0.21375
1.268 0.24032 -0.21375
1.268 0.25964001 -0.21375
1.272 0.25077 -0.21442001
1.245 0.26440999 -0.21935999
1.268 0.26930001 -0.21375
1.268 0.27895999 -0.21375
1.263 0.28748 -0.21291
1.232 0.2992 -0.21707
1.263 0.29710999 -0.21291
1.2359999 0.30959001 -0.21777
1.263 0.30673 -0.21291
1.2589999 0.31535 -0.21223
1.24 0.32003999 -0.21848001
1.2589999 0.32494 -0.21223
1.2589999 0.33453 -0.21223
1.2539999 0.34276 -0.21139
1.249 0.36994001 -0.21055
1.232 0.39307001 -0.21707
1.2359999 0.40375999 -0.21777
1.249 0.40801001 -0.21055
1.2539999 0.49563 -0.21139
1.263 0.50880998 -0.21291
1.177 0.57280999 -0.21634001
1.177 0.58177 -0.21634001
1.296 0.21600001 -0.20859
1.306 0.21766999 -0.20025
1.296 0.22587 -0.20859
1.2869999 0.23411 -0.20715
1.2869999 0.24392 -0.20715
1.2819999 0.25274 -0.20634
1.306 0.25747001 -0.20025
1.2869999 0.26352999 -0.20715
1.2869999 0.27333 -0.20715
1.2819999 0.28204 -0.20634
1.277 0.29067001 -0.20554
1.306 0.29727 -0.20025
1.277 0.30039999 -0.20554
1.277 0.31986001 -0.20554
1.2819999 0.31134 -0.20634
1.272 0.3283 -0.20473
1.277 0.33932 -0.20554
1.245 0.35927001 -0.20987
1.2819999 0.35041001 -0.20634
1.2819999 0.36506498 -0.20634
1.2819999 0.37972 -0.20634
1.272 0.38644999 -0.20473
1.245 0.39721 -0.20987
1.268 0.39489001 -0.20409
1.268 0.40454999 -0.20409
1.268 0.41420999 -0.20409
1.272 0.42521 -0.20473
1.268 0.43353999 -0.20409
1.263 0.44145 -0.20328
1.263 0.45107001 -0.20328
1.268 0.46252 -0.20409
1.245 0.47310001 -0.20987
1.2589999 0.47841999 -0.20264
1.263 0.47031999 -0.20328
1.245 0.48258999 -0.20987
1.2539999 0.48607001 -0.20183
1.263 0.49919 -0.20328
1.263 0.50880998 -0.20328
1.2539999 0.51473999 -0.20183
1.2359999 0.52618003 -0.20835
1.2539999 0.52429003 -0.20183
1.245 0.53475499 -0.20513
1.232 0.54325002 -0.20768
1.249 0.54123002 -0.20103
1.263 0.55691999 -0.20328
1.245 0.57744002 -0.20039
1.306 0.20772 -0.1903
1.306 0.21766999 -0.1903
1.301 0.22675 -0.19949
1.301 0.23666 -0.19949
1.3034999 0.24704501 -0.194895
1.306 0.25747001 -0.1903
1.3034999 0.26691002 -0.194895
1.3034999 0.27684 -0.194895
1.3034999 0.28676999 -0.194895
1.306 0.29727 -0.1903
1.3034999 0.30663002 -0.194895
1.296 0.31474 -0.19871999
1.306 0.31716999 -0.1903
1.296 0.32462001 -0.19871999
1.306 0.32712001 -0.1903
1.291 0.33320001 -0.19795001
1.306 0.33706999 -0.1903
1.2869999 0.34197 -0.19734
1.306 0.34702 -0.1903
1.2869999 0.35178 -0.19734
1.306 0.35697001 -0.1903
1.2869999 0.36159 -0.19734
1.291 0.37255001 -0.19795001
1.2869999 0.38119999 -0.19734
1.2869999 0.391 -0.19734
1.306 0.39678001 -0.1903
1.2869999 0.40081 -0.19734
1.2869999 0.41060999 -0.19734
1.2844999 0.424485 -0.196955
1.2819999 0.43832001 -0.19656999
1.272 0.44459 -0.19504
1.2819999 0.45785999 -0.19656999
1.2819999 0.46761999 -0.19656999
1.2819999 0.47738999 -0.19656999
1.277 0.48526001 -0.19581001
1.2819999 0.49693 -0.19656999
1.2819999 0.50669998 -0.19656999
1.263 0.51842999 -0.19366001
1.277 0.51445001 -0.19581001
1.268 0.53013998 -0.19442999
1.272 0.54150999 -0.19504
1.268 0.55913001 -0.19442999
1.272 0.55119997 -0.19504
1.263 0.57617003 -0.19366001
1.272 0.57058001 -0.19504
1.245 0.58692998 -0.1909
1.2539999 0.58161998 -0.19227999
1.306 0.21766999 -0.18035001
1.3034999 0.22718501 -0.18496001
1.301 0.23666 -0.18956999
1.306 0.24752 -0.18035001
1.306 0.25747001 -0.18035001
1.306 0.26741999 -0.18035001
1.306 0.27737001 -0.18035001
1.306 0.28731999 -0.18035001
1.306 0.29727 -0.18035001
1.306 0.30722001 -0.18035001
1.306 0.32712001 -0.18035001
1.306 0.33706999 -0.18035001
1.306 0.35697001 -0.18035001
1.3034999 0.36622 -0.18496001
1.3034999 0.37615001 -0.18496001
1.3034999 0.38608 -0.18496001
1.306 0.39678001 -0.18035001
1.3034999 0.40595001 -0.18496001
1.3034999 0.41588002 -0.18496001
1.306 0.42662999 -0.18035001
1.306 0.43658 -0.18035001
1.2869999 0.44003001 -0.18753
1.306 0.44653001 -0.18035001
1.291 0.45124 -0.18811999
1.311 0.45822999 -0.18104
1.301 0.46463999 -0.18956999
1.311 0.46821001 -0.18104
1.2819999 0.47738999 -0.18681
1.291 0.47091001 -0.18811999
1.306 0.47637999 -0.18035001
1.2869999 0.49886999 -0.18753
1.291 0.49057999 -0.18811999
1.2869999 0.50866997 -0.18753
1.306 0.50623 -0.18035001
1.2869999 0.51848 -0.18753
1.306 0.51617998 -0.18035001
1.2869999 0.52828002 -0.18753
1.291 0.53975999 -0.18811999
1.2869999 0.54789001 -0.18753
1.2819999 0.55553001 -0.18681
1.2819999 0.56529999 -0.18681
1.2819999 0.57507002 -0.18681
1.2819999 0.58484 -0.18681
1.301 0.20692 -0.17966001
1.306 0.22762001 -0.17039999
1.3034999 0.237115 -0.17502999
1.306 0.24752 -0.17039999
1.306 0.25747001 -0.17039999
1.306 0.26741999 -0.17039999
1.306 0.27737001 -0.17039999
1.306 0.28731999 -0.17039999
1.306 0.29727 -0.17039999
1.306 0.30722001 -0.17039999
1.301 0.31595999 -0.17966001
1.306 0.32712001 -0.17039999
1.306 0.33706999 -0.17039999
1.3034999 0.34635502 -0.17502999
1.306 0.35697001 -0.17039999
1.306 0.36691999 -0.17039999
1.306 0.37687001 -0.17039999
1.306 0.38681999 -0.17039999
1.306 0.41668001 -0.17039999
1.306 0.42662999 -0.17039999
1.311 0.43825001 -0.17105
1.306 0.44653001 -0.17039999
1.306 0.45648 -0.17039999
1.306 0.46643001 -0.17039999
1.306 0.47637999 -0.17039999
1.296 0.48260999 -0.17896999
1.306 0.48633 -0.17039999
1.3034999 0.49533001 -0.17502999
1.306 0.50623 -0.17039999
1.3034999 0.52512503 -0.17502999
1.2934999 0.53586996 -0.17862499
1.306 0.53608 -0.17039999
1.291 0.54960001 -0.17828
1.291 0.55943 -0.17828
1.291 0.56927001 -0.17828
1.2869999 0.57731003 -0.17772999
1.296 0.59122002 -0.17896999
1.301 0.21683 -0.16975001
1.306 0.22762001 -0.16045
1.306 0.25747001 -0.16045
1.306 0.26741999 -0.16045
1.301 0.31595999 -0.16975001
1.311 0.31839001 -0.16107
1.316 0.32962999 -0.16168
1.306 0.33706999 -0.16045
1.306 0.34702 -0.16045
1.306 0.35697001 -0.16045
1.311 0.36833 -0.16107
1.311 0.37832001 -0.16107
1.311 0.38830999 -0.16107
1.3034999 0.39602 -0.16510001
1.296 0.40360999 -0.1691
1.311 0.41826999 -0.16107
1.311 0.42826 -0.16107
1.311 0.43825001 -0.16107
1.306 0.44653001 -0.16045
1.306 0.48633 -0.16045
1.306 0.49628001 -0.16045
1.306 0.50623 -0.16045
1.3034999 0.51519001 -0.16510001
1.306 0.52613002 -0.16045
1.301 0.54394001 -0.16975001
1.301 0.55385 -0.16975001
1.301 0.56377 -0.16975001
1.301 0.57367998 -0.16975001
1.296 0.58135003 -0.1691
1.301 0.59350002 -0.16975001
1.3034999 0.21724999 -0.15516999
1.306 0.22762001 -0.1505
1.3034999 0.237115 -0.15516999
1.301 0.24657001 -0.15984
1.301 0.27631 -0.15984
1.301 0.28622001 -0.15984
1.301 0.29613 -0.15984
1.3034999 0.30663002 -0.15516999
1.306 0.31716999 -0.1505
1.306 0.32712001 -0.1505
1.306 0.33706999 -0.1505
1.306 0.34702 -0.1505
1.306 0.35697001 -0.1505
1.311 0.36833 -0.15108
1.311 0.37832001 -0.15108
1.306 0.38681999 -0.1505
1.306 0.39678001 -0.1505
1.3034999 0.40595001 -0.15516999
1.306 0.41668001 -0.1505
1.306 0.42662999 -0.1505
1.311 0.43825001 -0.15108
1.306 0.44653001 -0.1505
1.3034999 0.455605 -0.15516999
1.3034999 0.46553499 -0.15516999
1.296 0.47273001 -0.15922
1.306 0.47637999 -0.1505
1.306 0.48633 -0.1505
1.311 0.49818 -0.15108
1.306 0.50623 -0.1505
1.311 0.52815002 -0.15108
1.301 0.53403002 -0.15984
1.296 0.54184997 -0.15922
1.296 0.55172998 -0.15922
1.301 0.56377 -0.15984
1.301 0.57367998 -0.15984
1.296 0.58135003 -0.15922
1.301 0.59350002 -0.15984
1.301 0.20692 -0.14496499
1.306 0.21766999 -0.14055
1.306 0.22762001 -0.14055
1.306 0.23757 -0.14055
1.301 0.24657001 -0.14496499
1.301 0.25648001 -0.14496499
1.301 0.26640001 -0.14496499
1.3034999 0.27684 -0.145235
1.3034999 0.28676999 -0.145235
1.301 0.29613 -0.14992
1.311 0.29841 -0.14109001
1.311 0.30840001 -0.14109001
1.306 0.31716999 -0.14055
1.301 0.32587001 -0.14001
1.311 0.33836001 -0.14109001
1.316 0.34968001 -0.14162999
1.301 0.35561001 -0.14001
1.306 0.36691999 -0.14055
1.311 0.37832001 -0.14109001
1.306 0.38681999 -0.14055
1.306 0.39678001 -0.14055
1.306 0.40673 -0.14055
1.306 0.41668001 -0.14055
1.306 0.42662999 -0.14055
1.301 0.43491 -0.14001
1.301 0.44481999 -0.14001
1.306 0.45648 -0.14055
1.301 0.46463999 -0.14001
1.306 0.47637999 -0.14055
1.311 0.48819 -0.14109001
1.301 0.49438 -0.14001
1.3034999 0.53505504 -0.145235
1.316 0.53016001 -0.14162999
1.296 0.54184997 -0.14935
1.296 0.55172998 -0.14935
1.301 0.55385 -0.14001
1.3034999 0.56484997 -0.145235
1.3034999 0.57477999 -0.145235
1.301 0.58358997 -0.14496499
1.296 0.59122002 -0.14935
1.301 0.59350002 -0.14001
1.306 0.20772 -0.13060001
1.306 0.21766999 -0.13060001
1.301 0.22675 -0.1301
1.306 0.23757 -0.13060001
1.306 0.24752 -0.13060001
1.301 0.25648001 -0.1301
1.306 0.26741999 -0.13060001
1.301 0.27631 -0.1301
1.301 0.28622001 -0.1301
1.301 0.29613 -0.1301
1.306 0.30722001 -0.13060001
1.306 0.31716999 -0.13060001
1.301 0.32587001 -0.1301
1.306 0.33706999 -0.13060001
1.306 0.34702 -0.13060001
1.306 0.35697001 -0.13060001
1.311 0.36833 -0.1311
1.316 0.37976 -0.13160001
1.316 0.38979 -0.13160001
1.301 0.39526001 -0.1301
1.301 0.40516999 -0.1301
1.306 0.41668001 -0.13060001
1.301 0.42499 -0.1301
1.301 0.43491 -0.1301
1.301 0.44481999 -0.1301
1.306 0.45648 -0.13060001
1.301 0.46463999 -0.1301
1.306 0.47637999 -0.13060001
1.311 0.48819 -0.1311
1.311 0.49818 -0.1311
1.296 0.50234997 -0.13947
1.301 0.50428998 -0.1301
1.311 0.52815002 -0.1311
1.301 0.53403002 -0.1301
1.296 0.54184997 -0.13947
1.306 0.20772 -0.12065
1.301 0.21683 -0.12019
1.301 0.22675 -0.12019
1.306 0.23757 -0.12065
1.301 0.24657001 -0.12019
1.306 0.25747001 -0.12065
1.311 0.26844001 -0.12111
1.301 0.27631 -0.12019
1.301 0.28622001 -0.12019
1.306 0.29727 -0.12065
1.306 0.30722001 -0.12065
1.306 0.31716999 -0.12065
1.301 0.32587001 -0.12019
1.301 0.33577999 -0.12019
1.306 0.34702 -0.12065
1.306 0.35697001 -0.12065
1.306 0.36691999 -0.12065
1.311 0.37832001 -0.12111
1.311 0.38830999 -0.12111
1.301 0.39526001 -0.12019
1.306 0.40673 -0.12065
1.311 0.41826999 -0.12111
1.306 0.42662999 -0.12065
1.306 0.43658 -0.12065
1.306 0.44653001 -0.12065
1.301 0.45473 -0.12019
1.306 0.46643001 -0.12065
1.306 0.47637999 -0.12065
1.311 0.48819 -0.12111
1.316 0.50007999 -0.12157
1.306 0.52613002 -0.12065
1.306 0.53608 -0.12065
1.296 0.54184997 -0.1296
1.301 0.54394001 -0.12019
1.296 0.55172998 -0.1296
1.301 0.55385 -0.12019
1.296 0.56160003 -0.1296
1.296 0.57147002 -0.1296
1.296 0.58135003 -0.1296
1.296 0.59122002 -0.1296
1.301 0.20692 -0.11028
1.306 0.21766999 -0.1107
1.306 0.22762001 -0.1107
1.306 0.23757 -0.1107
1.306 0.24752 -0.1107
1.306 0.25747001 -0.1107
1.311 0.26844001 -0.11112
1.306 0.27737001 -0.1107
1.306 0.28731999 -0.1107
1.306 0.29727 -0.1107
1.306 0.30722001 -0.1107
1.311 0.31839001 -0.11112
1.306 0.32712001 -0.1107
1.301 0.33577999 -0.11028
1.301 0.34569001 -0.11028
1.306 0.35697001 -0.1107
1.306 0.36691999 -0.1107
1.311 0.37832001 -0.11112
1.311 0.38830999 -0.11112
1.306 0.39678001 -0.1107
1.311 0.40827999 -0.11112
1.306 0.41668001 -0.1107
1.301 0.42499 -0.11028
1.311 0.43825001 -0.11112
1.306 0.44653001 -0.1107
1.306 0.45648 -0.1107
1.311 0.46821001 -0.11112
1.301 0.47455999 -0.11028
1.301 0.48447001 -0.11028
1.311 0.49818 -0.11112
1.311 0.50817001 -0.11112
1.306 0.51617998 -0.1107
1.306 0.52613002 -0.1107
1.306 0.53608 -0.1107
1.301 0.54394001 -0.11028
1.291 0.55943 -0.11926
1.306 0.55598003 -0.1107
1.301 0.56377 -0.11028
1.296 0.57147002 -0.11973
1.296 0.58135003 -0.11973
1.296 0.59122002 -0.11973
1.301 0.20692 -0.10036
1.306 0.21766999 -0.10075
1.306 0.22762001 -0.10075
1.306 0.23757 -0.10075
1.306 0.24752 -0.10075
1.301 0.25648001 -0.10036
1.301 0.26640001 -0.10036
1.306 0.27737001 -0.10075
1.306 0.28731999 -0.10075
1.301 0.29613 -0.10036
1.306 0.30722001 -0.10075
1.306 0.31716999 -0.10075
1.301 0.32587001 -0.10036
1.301 0.33577999 -0.10036
1.301 0.34569001 -0.10036
1.301 0.35561001 -0.10036
1.301 0.36552 -0.10036
1.306 0.37687001 -0.10075
1.306 0.38681999 -0.10075
1.306 0.39678001 -0.10075
1.306 0.40673 -0.10075
1.306 0.41668001 -0.10075
1.301 0.42499 -0.10036
1.306 0.43658 -0.10075
1.306 0.44653001 -0.10075
1.311 0.45822999 -0.10113
1.306 0.46643001 -0.10075
1.301 0.47455999 -0.10036
1.306 0.50623 -0.10075
1.306 0.51617998 -0.10075
1.301 0.52411997 -0.10036
1.301 0.53403002 -0.10036
1.301 0.56377 -0.10036
1.2934999 0.57529002 -0.10964
1.291 0.58894002 -0.10943
1.306 0.20772 -0.090797998
1.306 0.21766999 -0.090797998
1.306 0.22762001 -0.090797998
1.301 0.23666 -0.090449996
1.296 0.25549999 -0.090103
1.301 0.26640001 -0.090449996
1.301 0.27631 -0.090449996
1.301 0.28622001 -0.090449996
1.301 0.29613 -0.090449996
1.301 0.30603999 -0.090449996
1.301 0.31595999 -0.090449996
1.296 0.32462001 -0.090103
1.301 0.33577999 -0.090449996
1.301 0.34569001 -0.090449996
1.306 0.35697001 -0.090797998
1.311 0.36833 -0.091146
1.306 0.37687001 -0.090797998
1.301 0.38534001 -0.090449996
1.301 0.39526001 -0.090449996
1.306 0.40673 -0.090797998
1.311 0.41826999 -0.091146
1.306 0.42662999 -0.090797998
1.301 0.43491 -0.090449996
1.306 0.44653001 -0.090797998
1.301 0.45473 -0.090449996
1.301 0.46463999 -0.090449996
1.301 0.47455999 -0.090449996
1.296 0.48260999 -0.095040001
1.296 0.49248001 -0.099977002
1.306 0.50623 -0.090797998
1.306 0.51617998 -0.090797998
1.301 0.52411997 -0.090449996
1.301 0.53403002 -0.090449996
1.296 0.54184997 -0.099977002
1.301 0.54394001 -0.090449996
1.296 0.55172998 -0.095040001
1.2869999 0.57731003 -0.099283002
1.296 0.57147002 -0.099977002
1.2869999 0.58712 -0.099283002
1.301 0.20692 -0.080537997
1.306 0.21766999 -0.080848001
1.301 0.22675 -0.080537997
1.301 0.23666 -0.080537997
1.291 0.24468 -0.089754999
1.301 0.24657001 -0.080537997
1.301 0.25648001 -0.080537997
1.306 0.26741999 -0.080848001
1.301 0.27631 -0.080537997
1.296 0.28512001 -0.080228999
1.301 0.29613 -0.080537997
1.301 0.30603999 -0.080537997
1.301 0.31595999 -0.080537997
1.301 0.32587001 -0.080537997
1.301 0.33577999 -0.080537997
1.301 0.34569001 -0.080537997
1.301 0.35561001 -0.080537997
1.301 0.36552 -0.080537997
1.296 0.37399 -0.080228999
1.301 0.38534001 -0.080537997
1.301 0.39526001 -0.080537997
1.306 0.40673 -0.080848001
1.306 0.41668001 -0.080848001
1.301 0.42499 -0.080537997
1.301 0.43491 -0.080537997
1.306 0.44653001 -0.080848001
1.301 0.45473 -0.080537997
1.301 0.46463999 -0.080537997
1.301 0.47455999 -0.080537997
1.301 0.48447001 -0.080537997
1.306 0.49628001 -0.080848001
1.306 0.50623 -0.080848001
1.311 0.51815999 -0.081156999
1.291 0.56927001 -0.089754999
1.2869999 0.57731003 -0.089477003
1.291 0.58894002 -0.089754999
1.296 0.59122002 -0.080228999
1.301 0.20692 -0.070625998
1.301 0.21683 -0.070625998
1.306 0.22762001 -0.070896998
1.301 0.23666 -0.070625998
1.301 0.24657001 -0.070625998
1.301 0.25648001 -0.070625998
1.301 0.26640001 -0.070625998
1.301 0.27631 -0.070625998
1.301 0.28622001 -0.070625998
1.301 0.29613 -0.070625998
1.301 0.30603999 -0.070625998
1.301 0.31595999 -0.070625998
1.301 0.32587001 -0.070625998
1.306 0.33706999 -0.070896998
1.306 0.34702 -0.070896998
1.306 0.35697001 -0.070896998
1.306 0.36691999 -0.070896998
1.301 0.37542999 -0.070625998
1.306 0.38681999 -0.070896998
1.306 0.39678001 -0.070896998
1.301 0.40516999 -0.070625998
1.301 0.41508001 -0.070625998
1.301 0.42499 -0.070625998
1.306 0.43658 -0.070896998
1.301 0.44481999 -0.070625998
1.301 0.45473 -0.070625998
1.306 0.46643001 -0.070896998
1.301 0.47455999 -0.070625998
1.306 0.48633 -0.070896998
1.306 0.49628001 -0.070896998
1.306 0.52613002 -0.070896998
1.306 0.53608 -0.070896998
1.291 0.55943 -0.070083
1.272 0.56089002 -0.078743003
1.291 0.56927001 -0.070083
1.291 0.57911003 -0.079919003
1.296 0.58135003 -0.070354
1.296 0.59122002 -0.070354
1.301 0.20692 -0.060713001
1.301 0.21683 -0.060713001
1.301 0.22675 -0.060713001
1.306 0.23757 -0.060947001
1.306 0.24752 -0.060947001
1.301 0.25648001 -0.060713001
1.301 0.26640001 -0.060713001
1.301 0.27631 -0.060713001
1.301 0.28622001 -0.060713001
1.301 0.29613 -0.060713001
1.301 0.30603999 -0.060713001
1.301 0.31595999 -0.060713001
1.296 0.32462001 -0.060479999
1.301 0.33577999 -0.060713001
1.301 0.34569001 -0.060713001
1.301 0.35561001 -0.060713001
1.301 0.36552 -0.060713001
1.301 0.37542999 -0.060713001
1.301 0.38534001 -0.060713001
1.306 0.39678001 -0.060947001
1.301 0.40516999 -0.060713001
1.296 0.41349 -0.060479999
1.301 0.42499 -0.060713001
1.301 0.43491 -0.060713001
1.301 0.44481999 -0.060713001
1.301 0.45473 -0.060713001
1.296 0.46285999 -0.060479999
1.301 0.47455999 -0.060713001
1.301 0.48447001 -0.060713001
1.301 0.49438 -0.060713001
1.306 0.50623 -0.060947001
1.306 0.53608 -0.060947001
1.2869999 0.54789001 -0.069866002
1.291 0.54960001 -0.060247
1.291 0.55943 -0.060247
1.291 0.56927001 -0.060247
1.291 0.57911003 -0.060247
1.296 0.59122002 -0.060479999
1.301 0.19701 -0.050801001
1.306 0.20772 -0.050996002
1.301 0.21683 -0.050801001
1.301 0.22675 -0.050801001
1.301 0.23666 -0.050801001
1.301 0.24657001 -0.050801001
1.301 0.25648001 -0.050801001
1.301 0.26640001 -0.050801001
1.301 0.27631 -0.050801001
1.301 0.28622001 -0.050801001
1.301 0.29613 -0.050801001
1.296 0.30487001 -0.050606001
1.301 0.31595999 -0.050801001
1.306 0.32712001 -0.050996002
1.301 0.33577999 -0.050801001
1.301 0.34569001 -0.050801001
1.301 0.35561001 -0.050801001
1.301 0.36552 -0.050801001
1.306 0.37687001 -0.050996002
1.301 0.38534001 -0.050801001
1.306 0.39678001 -0.050996002
1.306 0.40673 -0.050996002
1.301 0.41508001 -0.050801001
1.301 0.42499 -0.050801001
1.301 0.43491 -0.050801001
1.301 0.44481999 -0.050801001
1.301 0.45473 -0.050801001
1.301 0.46463999 -0.050801001
1.296 0.47273001 -0.050606001
1.296 0.48260999 -0.050606001
1.301 0.49438 -0.050801001
1.306 0.50623 -0.050996002
1.301 0.53403002 -0.050801001
1.301 0.54394001 -0.050801001
1.301 0.55385 -0.050801001
1.291 0.56927001 -0.050409999
1.301 0.56377 -0.050801001
1.291 0.57911003 -0.050409999
1.296 0.59122002 -0.050606001
1.306 0.20772 -0.041046001
1.306 0.21766999 -0.041046001
1.301 0.22675 -0.040888999
1.301 0.23666 -0.040888999
1.301 0.24657001 -0.040888999
1.301 0.25648001 -0.040888999
1.306 0.26741999 -0.041046001
1.301 0.27631 -0.040888999
1.301 0.28622001 -0.040888999
1.301 0.29613 -0.040888999
1.296 0.30487001 -0.040731002
1.301 0.31595999 -0.040888999
1.301 0.32587001 -0.040888999
1.301 0.33577999 -0.040888999
1.301 0.34569001 -0.040888999
1.301 0.35561001 -0.040888999
1.301 0.36552 -0.040888999
1.301 0.37542999 -0.040888999
1.301 0.38534001 -0.040888999
1.306 0.39678001 -0.041046001
1.306 0.40673 -0.041046001
1.301 0.41508001 -0.040888999
1.296 0.42335999 -0.040731002
1.301 0.43491 -0.040888999
1.296 0.44310999 -0.040731002
1.296 0.45298001 -0.040731002
1.301 0.46463999 -0.040888999
1.301 0.47455999 -0.040888999
1.301 0.48447001 -0.040888999
1.301 0.49438 -0.040888999
1.296 0.50234997 -0.040731002
1.291 0.51024997 -0.040573999
1.296 0.52209997 -0.040731002
1.296 0.53197998 -0.040731002
1.301 0.54394001 -0.040888999
1.301 0.55385 -0.040888999
1.2869999 0.56751001 -0.040449001
1.296 0.56160003 -0.040731002
1.291 0.57911003 -0.040573999
1.291 0.58894002 -0.040573999
1.39 0.64469999 -0.043685999
1.301 0.20692 -0.030975999
1.301 0.21683 -0.030975999
1.301 0.22675 -0.030975999
1.301 0.23666 -0.030975999
1.301 0.24657001 -0.030975999
1.301 0.25648001 -0.030975999
1.301 0.26640001 -0.030975999
1.301 0.27631 -0.030975999
1.301 0.28622001 -0.030975999
1.301 0.29613 -0.030975999
1.296 0.30487001 -0.030857
1.296 0.31474 -0.030857
1.301 0.32587001 -0.030975999
1.301 0.33577999 -0.030975999
1.296 0.34437001 -0.030857
1.306 0.35697001 -0.031095
1.301 0.36552 -0.030975999
1.296 0.37399 -0.030857
1.296 0.38385999 -0.030857
1.301 0.39526001 -0.030975999
1.306 0.40673 -0.031095
1.306 0.41668001 -0.031095
1.301 0.42499 -0.030975999
1.301 0.43491 -0.030975999
1.301 0.44481999 -0.030975999
1.301 0.45473 -0.030975999
1.306 0.46643001 -0.031095
1.301 0.47455999 -0.030975999
1.301 0.48447001 -0.030975999
1.296 0.49248001 -0.030857
1.296 0.50234997 -0.030857
1.296 0.51222998 -0.030857
1.2934999 0.52600998 -0.0307975
1.301 0.54394001 -0.030975999
1.291 0.55943 -0.030738
1.306 0.55598003 -0.031095
1.2869999 0.56751001 -0.030642999
1.2869999 0.57731003 -0.030642999
1.296 0.59122002 -0.030857
1.39 0.64469999 -0.033094998
1.2869999 0.19489001 -0.020837
1.296 0.20613 -0.020982999
1.301 0.21683 -0.021064
1.301 0.22675 -0.021064
1.301 0.23666 -0.021064
1.301 0.24657001 -0.021064
1.301 0.25648001 -0.021064
1.301 0.26640001 -0.021064
1.296 0.27524999 -0.020982999
1.296 0.28512001 -0.020982999
1.301 0.29613 -0.021064
1.301 0.30603999 -0.021064
1.301 0.31595999 -0.021064
1.301 0.32587001 -0.021064
1.301 0.33577999 -0.021064
1.296 0.34437001 -0.020982999
1.301 0.35561001 -0.021064
1.306 0.36691999 -0.021144999
1.301 0.37542999 -0.021064
1.301 0.38534001 -0.021064
1.301 0.39526001 -0.021064
1.306 0.40673 -0.021144999
1.306 0.41668001 -0.021144999
1.301 0.42499 -0.021064
1.296 0.43323001 -0.020982999
1.301 0.44481999 -0.021064
1.301 0.45473 -0.021064
1.301 0.46463999 -0.021064
1.301 0.47455999 -0.021064
1.301 0.48447001 -0.021064
1.296 0.49248001 -0.020982999
1.296 0.50234997 -0.020982999
1.2869999 0.52828002 -0.020837
1.296 0.52209997 -0.020982999
1.2869999 0.53808999 -0.020837
1.2869999 0.55769998 -0.020837
1.301 0.55385 -0.021064
1.2869999 0.56751001 -0.020837
1.2869999 0.57731003 -0.020837
1.2869999 0.58712 -0.020837
1.39 0.64469999 -0.022505
1.296 0.19625001 -0.011109
1.296 0.20613 -0.011109
1.296 0.21600001 -0.011109
1.301 0.22675 -0.011151
1.301 0.23666 -0.011151
1.301 0.24657001 -0.011151
1.301 0.25648001 -0.011151
1.301 0.26640001 -0.011151
1.296 0.27524999 -0.011109
1.301 0.28622001 -0.011151
1.301 0.29613 -0.011151
1.301 0.30603999 -0.011151
1.301 0.31595999 -0.011151
1.296 0.32462001 -0.011109
1.296 0.33449 -0.011109
1.296 0.34437001 -0.011109
1.296 0.35424 -0.011109
1.301 0.36552 -0.011151
1.301 0.37542999 -0.011151
1.296 0.38385999 -0.011109
1.296 0.39374 -0.011109
1.301 0.40516999 -0.011151
1.301 0.41508001 -0.011151
1.301 0.42499 -0.011151
1.296 0.43323001 -0.011109
1.301 0.44481999 -0.011151
1.301 0.45473 -0.011151
1.301 0.46463999 -0.011151
1.301 0.47455999 -0.011151
1.301 0.48447001 -0.011151
1.291 0.49057999 -0.011066
1.291 0.50041997 -0.011066
1.291 0.52991998 -0.011066
1.301 0.52411997 -0.011151
1.2869999 0.53808999 -0.011031
1.301 0.55385 -0.011151
1.301 0.56377 -0.011151
1.2869999 0.57731003 -0.011031
1.296 0.57147002 -0.011109
1.2819999 0.58484 -0.010989
1.385 0.64238 -0.011871
1.296 0.19625001 -0.001234
1.296 0.20613 -0.001234
1.301 0.21683 -0.001239
1.301 0.22675 -0.001239
1.296 0.23575 -0.001234
1.296 0.24562 -0.001234
1.296 0.25549999 -0.001234
1.291 0.26435 -0.001229
1.301 0.27631 -0.001239
1.301 0.28622001 -0.001239
1.301 0.29613 -0.001239
1.296 0.30487001 -0.001234
1.296 0.31474 -0.001234
1.296 0.32462001 -0.001234
1.296 0.33449 -0.001234
1.296 0.34437001 -0.001234
1.296 0.35424 -0.001234
1.301 0.36552 -0.001239
1.301 0.37542999 -0.001239
1.291 0.38238001 -0.001229
1.296 0.39374 -0.001234
1.296 0.40360999 -0.001234
1.301 0.41508001 -0.001239
1.301 0.42499 -0.001239
1.306 0.43658 -0.001244
1.301 0.44481999 -0.001239
1.301 0.45473 -0.001239
1.301 0.46463999 -0.001239
1.301 0.47455999 -0.001239
1.296 0.48260999 -0.001234
1.296 0.49248001 -0.001234
1.296 0.50234997 -0.001234
1.306 0.51617998 -0.001244
1.2869999 0.52828002 -0.001226
1.301 0.52411997 -0.001239
1.291 0.56927001 -0.001229
1.301 0.56377 -0.001239
1.2869999 0.57731003 -0.001226
1.291 0.58894002 -0.001229
1.306 0.19777 0.0087069999
1.301 0.20692 0.0086730001
1.301 0.21683 0.0086730001
1.301 0.22675 0.0086730001
1.291 0.23484001 0.0086070001
1.296 0.24562 0.0086399997
1.301 0.25648001 0.0086730001
1.301 0.26640001 0.0086730001
1.301 0.27631 0.0086730001
1.301 0.28622001 0.0086730001
1.301 0.29613 0.0086730001
1.296 0.30487001 0.0086399997
1.296 0.31474 0.0086399997
1.301 0.32587001 0.0086730001
1.296 0.33449 0.0086399997
1.291 0.34303999 0.0086070001
1.291 0.35286999 0.0086070001
1.296 0.36410999 0.0086399997
1.296 0.37399 0.0086399997
1.296 0.38385999 0.0086399997
1.301 0.39526001 0.0086730001
1.301 0.40516999 0.0086730001
1.296 0.41349 0.0086399997
1.296 0.42335999 0.0086399997
1.301 0.43491 0.0086730001
1.301 0.44481999 0.0086730001
1.301 0.45473 0.0086730001
1.301 0.46463999 0.0086730001
1.301 0.47455999 0.0086730001
1.291 0.48074001 0.0086070001
1.296 0.49248001 0.0086399997
1.2869999 0.52828002 0.0085800001
1.2934999 0.56543505 0.0086234994
1.2869999 0.57731003 0.0085800001
1.296 0.59122002 0.0086399997
1.296 0.19625001 0.018514
1.301 0.20692 0.018586
1.301 0.21683 0.018586
1.301 0.22675 0.018586
1.296 0.23575 0.018514
1.296 0.24562 0.018514
1.296 0.25549999 0.018514
1.301 0.26640001 0.018586
1.301 0.27631 0.018586
1.296 0.28512001 0.018514
1.301 0.29613 0.018586
1.296 0.30487001 0.018514
1.296 0.31474 0.018514
1.301 0.32587001 0.018586
1.296 0.33449 0.018514
1.296 0.34437001 0.018514
1.296 0.35424 0.018514
1.296 0.36410999 0.018514
1.296 0.37399 0.018514
1.296 0.38385999 0.018514
1.296 0.39374 0.018514
1.296 0.40360999 0.018514
1.296 0.41349 0.018514
1.296 0.42335999 0.018514
1.301 0.43491 0.018586
1.301 0.44481999 0.018586
1.301 0.45473 0.018586
1.301 0.46463999 0.018586
1.296 0.53197998 0.018514
1.2869999 0.55769998 0.018386001
1.2869999 0.56751001 0.018386001
1.2869999 0.57731003 0.018386001
1.2819999 0.58484 0.018314
1.301 0.20692 0.028498
1.296 0.21600001 0.028388999
1.291 0.22499999 0.028279001
1.291 0.23484001 0.028279001
1.291 0.24468 0.028279001
1.291 0.25450999 0.028279001
1.296 0.26537001 0.028388999
1.296 0.27524999 0.028388999
1.296 0.28512001 0.028388999
1.291 0.29385999 0.028279001
1.296 0.30487001 0.028388999
1.296 0.31474 0.028388999
1.296 0.32462001 0.028388999
1.301 0.33577999 0.028498
1.296 0.34437001 0.028388999
1.301 0.35561001 0.028498
1.296 0.36410999 0.028388999
1.296 0.37399 0.028388999
1.296 0.38385999 0.028388999
1.296 0.39374 0.028388999
1.301 0.40516999 0.028498
1.301 0.41508001 0.028498
1.301 0.42499 0.028498
1.301 0.43491 0.028498
1.296 0.44310999 0.028388999
1.301 0.45473 0.028498
1.301 0.46463999 0.028498
1.306 0.47637999 0.028608
1.291 0.49057999 0.028279001
1.301 0.50428998 0.028498
1.291 0.52008998 0.028279001
1.296 0.53197998 0.028388999
1.296 0.54184997 0.028388999
1.2819999 0.56529999 0.028082
1.2819999 0.57507002 0.028082
1.311 0.2185 0.038706001
1.306 0.22762001 0.038557999
1.301 0.23666 0.038410001
1.296 0.24562 0.038263001
1.296 0.25549999 0.038263001
1.296 0.26537001 0.038263001
1.291 0.27418 0.038114998
1.291 0.28402001 0.038114998
1.2869999 0.29295 0.037997
1.291 0.30368999 0.038114998
1.291 0.31353 0.038114998
1.296 0.32462001 0.038263001
1.296 0.33449 0.038263001
1.291 0.34303999 0.038114998
1.296 0.35424 0.038263001
1.296 0.36410999 0.038263001
1.296 0.37399 0.038263001
1.296 0.38385999 0.038263001
1.301 0.39526001 0.038410001
1.296 0.40360999 0.038263001
1.296 0.41349 0.038263001
1.301 0.42499 0.038410001
1.301 0.43491 0.038410001
1.296 0.44310999 0.038263001
1.301 0.45473 0.038410001
1.301 0.46463999 0.038410001
1.301 0.47455999 0.038410001
1.306 0.48633 0.038557999
1.296 0.49248001 0.038263001
1.296 0.50234997 0.038263001
1.2869999 0.51848 0.037997
1.291 0.51024997 0.038114998
1.2869999 0.52828002 0.037997
1.291 0.53975999 0.038114998
1.2869999 0.56751001 0.037997
1.2819999 0.57507002 0.03785
1.301 0.32587001 0.048323002
1.301 0.33577999 0.048323002
1.291 0.34303999 0.047951002
1.301 0.35561001 0.048323002
1.301 0.36552 0.048323002
1.301 0.37542999 0.048323002
1.306 0.38681999 0.048509002
1.301 0.39526001 0.048323002
1.296 0.40360999 0.048137002
1.291 0.41189 0.047951002
1.301 0.42499 0.048323002
1.301 0.43491 0.048323002
1.301 0.44481999 0.048323002
1.291 0.45124 0.047951002
1.291 0.46107 0.047951002
1.296 0.47273001 0.048137002
1.301 0.48447001 0.048323002
1.291 0.49057999 0.047951002
1.291 0.50041997 0.047951002
1.291 0.51024997 0.047951002
1.291 0.52500498 0.047951002
1.2869999 0.53808999 0.047803
1.291 0.54960001 0.047951002
1.291 0.55943 0.047951002
1.291 0.56927001 0.047951002
1.291 0.57911003 0.047951002
1.291 0.46107 0.057788
1.306 0.48633 0.058458999
1.306 0.49628001 0.058458999
1.296 0.50234997 0.058010999
1.291 0.51024997 0.057788
1.291 0.52008998 0.057788
1.2869999 0.53808999 0.057608999
1.296 0.53197998 0.058010999
1.291 0.54960001 0.057788
1.291 0.55943 0.057788
1.2869999 0.56751001 0.057608999
1.2869999 0.57731003 0.057608999
