# .PCD v.7 - Point Cloud Data file format
VERSION .7
FIELDS x y z
SIZE 4 4 4
TYPE F F F
COUNT 1 1 1
WIDTH 1488
HEIGHT 1
VIEWPOINT 0 0 0 1 0 0 0
POINTS 1488
DATA ascii
0.0299943 0.101654 -0.0156302 
0.0291394 0.102042 -0.0160578 
0.0273648 0.102724 -0.0167839 
0.0264479 0.103016 -0.017087 
0.0070795 0.101453 -0.021277 
0.0178644 0.101883 -0.0218675 
0.0188255 0.104686 -0.0188612 
0.0147875 0.105075 -0.0193 
0.0110737 0.125093 -0.00680678 
-0.0111071 0.0879305 -0.0374747 
0.00280587 0.10648 -0.0207933 
-0.00382944 0.108004 -0.0223654 
-0.00481267 0.108148 -0.0225124 
0.046473 0.0747304 0.00699979 
0.013228 0.0990749 -0.0229052 
-0.0109854 0.0891937 -0.0368255 
0.0471199 0.0728094 0.00697834 
-0.00125449 0.12189 -0.0112382 
-0.000114754 0.120081 -0.0133088 
0.00335185 0.118611 -0.0157819 
0.0122035 0.115305 -0.0162457 
-0.015298 0.113338 -0.0180384 
-0.00623267 0.10133 -0.0233757 
0.0297353 0.111221 -0.00987421 
0.000993844 0.0989182 -0.0247915 
0.00197653 0.0987575 -0.0246237 
-0.0045943 0.109577 -0.0220661 
0.0201484 0.0899648 -0.02526 
0.00296819 0.0986498 -0.0244883 
0.00226918 0.115596 -0.0185376 
0.00392426 0.0984839 -0.0242888 
0.00471531 0.10507 -0.02128 
-0.0302725 0.114038 -0.0167089 
0.00733671 0.115147 -0.0180672 
0.012072 0.11405 -0.0168987 
-0.0217183 0.113234 -0.017904 
0.000134491 0.116503 -0.0174981 
-0.0263041 0.10845 -0.0208491 
0.0293628 0.105677 -0.0139766 
0.0544954 0.0655564 0.000403771 
-0.0110297 0.11443 -0.0172182 
-0.00557868 0.109705 -0.0221876 
0.0309621 0.0953572 -0.0169293 
0.0049437 0.0984176 -0.0242128 
0.0296113 0.108994 -0.0114792 
-0.0229141 0.111944 -0.0185359 
0.0110271 0.112101 -0.0187639 
-0.0077039 0.113721 -0.0184781 
0.00592947 0.0982847 -0.0240623 
0.00695506 0.0982177 -0.0239936 
0.0101806 0.114501 -0.0173735 
0.0217819 0.106251 -0.0165369 
-0.0120923 0.11442 -0.0172013 
0.00793635 0.0980328 -0.0238123 
0.0220342 0.108737 -0.0152173 
0.033089 0.0892132 -0.0184699 
-0.0136643 0.0922643 -0.0359313 
0.0211966 0.123092 -0.002693 
-0.00886334 0.103392 -0.0235214 
-0.00689074 0.103109 -0.0232386 
-0.00282516 0.102957 -0.0229221 
0.0473804 0.0650284 -0.00116263 
0.00409443 0.101828 -0.021842 
0.00810708 0.101446 -0.0211916 
0.0188129 0.101666 -0.0216414 
0.020694 0.101208 -0.0211426 
0.0225251 0.100664 -0.0205487 
0.0260175 0.0991397 -0.0189626 
0.0318352 0.0959581 -0.0155753 
0.0359605 0.0936242 -0.0130764 
0.0399822 0.0910991 -0.010396 
-0.0163397 0.112374 -0.0190184 
0.0469627 0.0735494 0.00823046 
0.0121657 0.0990535 -0.0228743 
-0.00994091 0.089177 -0.0367642 
0.0301974 0.0887542 -0.0200097 
-0.00121687 0.120006 -0.0132177 
-0.0148084 0.124344 -0.00565133 
0.00895989 0.0979651 -0.0237371 
-0.0252122 0.108563 -0.020971 
-0.00996463 0.114432 -0.0172214 
0.0138891 0.0942573 -0.0257865 
-0.00103499 0.117326 -0.0163697 
0.00994371 0.0978413 -0.0235989 
0.0221704 0.109999 -0.014573 
0.0230644 0.109683 -0.0142211 
0.0239811 0.109404 -0.0139261 
0.0249492 0.109234 -0.0137375 
-0.0186027 0.111108 -0.0196906 
-0.0196643 0.111086 -0.0196461 
0.02369 0.10485 -0.01704 
0.0217204 0.105135 -0.0173432 
0.0226853 0.115014 -0.0119595 
0.0235731 0.114695 -0.0116124 
0.0322493 0.109934 -0.00848346 
0.0330411 0.10941 -0.00791346 
-0.0159305 0.0950186 -0.0327431 
0.0569982 0.0642691 0.00177262 
0.0120747 0.0958655 -0.0254962 
-0.00117532 0.0998676 -0.0237773 
0.0208954 0.116644 -0.0117151 
0.0199827 0.116932 -0.0120267 
0.0321971 0.112814 -0.0055615 
0.0313786 0.113275 -0.00606229 
-0.0022335 0.116052 -0.016996 
-0.00341693 0.115827 -0.0167447 
0.00933928 0.0947261 -0.0283032 
-0.024291 0.106203 -0.0224613 
0.0109672 0.0977693 -0.023517 
-0.00361865 0.109419 -0.0218821 
-0.00102634 0.107271 -0.0216101 
0.0302323 0.0969553 -0.0166472 
0.0276359 0.0629152 -0.0215123 
0.011956 0.0976358 -0.0233787 
-0.0114932 0.036278 -0.0256312 
0.0207921 0.106393 -0.0166835 
0.0257808 0.10679 -0.0151172 
0.0251044 0.111527 -0.0122017 
0.00314926 0.122256 -0.0116623 
0.0111022 0.114226 -0.0170859 
0.0178849 0.106917 -0.0172488 
-0.00967152 0.0968708 -0.0306358 
0.012978 0.0975651 -0.0232996 
0.0211195 0.109025 -0.0155233 
-0.0012258 0.095852 -0.0315171 
0.00685606 0.0990064 -0.0228407 
-0.0129939 0.103563 -0.0236849 
-0.0078767 0.103255 -0.023393 
-0.00579466 0.103184 -0.0232761 
-0.000759903 0.102685 -0.0227147 
0.00315207 0.102056 -0.0221009 
0.00608628 0.101527 -0.0214717 
-0.00890397 0.114438 -0.0172305 
0.0197796 0.101487 -0.0214363 
0.021598 0.10091 -0.0208238 
0.00411662 0.125005 -0.00865855 
0.00616718 0.124896 -0.00854967 
0.0102653 0.0944766 -0.0280245 
-0.0063607 0.125295 -0.00886018 
-0.00430179 0.125159 -0.00873129 
-0.0223108 0.122995 -0.00618559 
0.0139694 0.0974449 -0.0231882 
-0.0033562 0.120959 -0.0122202 
0.0150281 0.097439 -0.0231662 
0.0161097 0.0974052 -0.0230873 
-0.0159384 0.124168 -0.00545234 
0.0101747 0.096292 -0.0259611 
-0.0147917 0.0951887 -0.0329173 
0.00037651 0.0978532 -0.0276151 
0.017211 0.088423 -0.0276786 
-0.0271072 0.11707 -0.0138992 
-0.0249824 0.117062 -0.0139085 
0.0208761 0.115613 -0.0126037 
0.0217846 0.11532 -0.0122874 
-0.0287709 0.04365 -0.0290051 
0.00549299 0.117639 -0.0167508 
0.00588424 0.100173 -0.0220733 
-0.00111933 0.100971 -0.0229536 
-0.00714364 0.101607 -0.0236448 
-0.013279 0.101966 -0.0239644 
0.0043586 0.119499 -0.0147306 
0.0244076 0.117212 -0.0083203 
0.00827474 0.123868 -0.00945393 
0.0288386 0.111536 -0.010211 
-0.025262 0.107417 -0.0217613 
-0.0295595 0.111353 -0.0178807 
-0.00665705 0.114661 -0.0174859 
0.0305345 0.113708 -0.00653825 
0.0296623 0.114075 -0.00693776 
0.0123912 0.116671 -0.0157278 
-0.0285619 0.108073 -0.0204718 
0.0198041 0.103539 -0.0196351 
0.01688 0.104029 -0.0201606 
-0.0165812 0.0355875 -0.0267111 
-0.00663864 0.115688 -0.0165748 
-0.0108336 0.116804 -0.0157483 
0.0252498 0.0645397 -0.0230446 
0.015355 0.119233 -0.0124997 
0.0181426 0.117476 -0.0126083 
0.0124864 0.11785 -0.0149995 
0.0305961 0.110839 -0.00946183 
-0.0238167 0.0929782 -0.0327062 
-0.0117557 0.0345134 -0.025836 
0.0396278 0.103602 -0.00160767 
0.0322846 0.110983 -0.00760517 
-0.00634438 0.0961732 -0.0318818 
0.00176571 0.0954911 -0.0311224 
-0.0180945 0.124042 -0.00530863 
0.0202177 0.109327 -0.0158556 
0.0338998 0.0888046 -0.0179815 
0.0523857 0.0624129 -0.0025136 
-0.0119328 0.103575 -0.0236984 
-0.0217098 0.115215 -0.0159934 
-0.00180961 0.102694 -0.0227875 
0.00507814 0.101571 -0.0215886 
0.00917846 0.101539 -0.0214106 
0.0139515 0.0933972 -0.0268828 
0.0326207 0.0944486 -0.0159568 
-0.013127 0.120519 -0.0116431 
0.0465137 0.0736858 0.00606841 
-0.0229191 0.119996 -0.0109969 
-0.019191 0.123923 -0.00519119 
-0.00455763 0.115688 -0.0165869 
-0.0229012 0.115018 -0.0157633 
0.0111864 0.115382 -0.0163281 
-0.0152754 0.103231 -0.0233341 
0.00372554 0.105196 -0.0213905 
-0.0203338 0.123782 -0.00500918 
-0.0282283 0.117946 -0.012805 
0.0213227 0.122349 -0.00385694 
0.00824435 0.0966482 -0.0263491 
0.00104126 0.108173 -0.0205653 
-0.0190957 0.0968508 -0.0266962 
0.0485163 0.0672488 0.000612911 
-0.00556188 0.116801 -0.0157696 
0.0336763 0.102539 -0.0125747 
0.0328155 0.102974 -0.0130264 
0.0304322 0.0902625 -0.0195701 
0.0344822 0.102017 -0.0120204 
-0.0185957 0.118181 -0.0131167 
0.0103692 0.116852 -0.0159048 
0.0102801 0.12364 -0.00922404 
-0.0129957 0.0883892 -0.0379783 
-0.00131456 0.122836 -0.0102349 
-0.00577101 0.098213 -0.0280417 
0.0394869 0.10531 0.000602508 
-0.00679638 0.0982761 -0.0281107 
0.0236022 0.115739 -0.0107408 
0.0209713 0.0966458 -0.0223043 
0.021889 0.0963552 -0.0220144 
0.00163035 0.0962275 -0.0299038 
0.0547176 0.0680176 0.00187225 
0.0105539 0.104067 -0.0202515 
0.028326 0.0882981 -0.0214817 
0.0227624 0.0959793 -0.0216236 
0.0236771 0.0956901 -0.0213272 
0.0204284 0.122662 -0.00423372 
0.024601 0.0954054 -0.0210454 
0.0276762 0.118315 -0.00350857 
0.00929873 0.115842 -0.01682 
0.0255559 0.0952317 -0.0208124 
-0.0167796 0.121583 -0.00869919 
0.0408877 0.0928069 -0.00817715 
0.00445187 0.116712 -0.0177471 
0.027859 0.114683 -0.0075901 
0.026954 0.114984 -0.00791167 
0.0158574 0.104091 -0.0202309 
0.013731 0.104072 -0.0202068 
-0.00349323 0.113677 -0.0184484 
0.0147725 0.0939169 -0.0254338 
0.0264487 0.0948748 -0.0204583 
-0.0299173 0.0383162 -0.0299848 
0.0273313 0.094554 -0.020088 
0.011579 0.120136 -0.0134617 
0.0172033 0.118701 -0.0119316 
0.0282191 0.0941913 -0.0197138 
0.0277565 0.117474 -0.00457839 
0.026933 0.109961 -0.012516 
-0.00347452 0.114725 -0.0175669 
0.0388181 0.104067 -0.00210374 
-0.00562089 0.115673 -0.0165634 
-0.000575856 0.0980296 -0.0278345 
-0.00115893 0.11911 -0.0142672 
0.0244135 0.114257 -0.0111426 
0.0291029 0.0938741 -0.0193597 
0.0192911 0.109605 -0.016128 
0.0347324 0.0882263 -0.0174421 
0.00586712 0.0991316 -0.0229749 
0.0349035 0.0987755 -0.0125611 
-0.0189866 0.10628 -0.022556 
0.0299737 0.0934986 -0.0189639 
0.0308492 0.0931255 -0.0185705 
-0.0134033 0.110892 -0.0194483 
0.0256081 0.104449 -0.0166247 
0.00614351 0.12581 -0.00755937 
-0.0164766 0.111102 -0.0196668 
0.0326734 0.101648 -0.0136311 
0.0317035 0.0927362 -0.0181479 
0.0325469 0.0922927 -0.0176842 
-0.00524932 0.101176 -0.023207 
-0.0288608 0.0448354 -0.0281934 
-0.0110869 0.111309 -0.0199045 
0.0333653 0.0918289 -0.0171871 
0.0237477 0.0605032 -0.0251433 
0.0229081 0.0608908 -0.0255785 
0.00394905 0.100531 -0.0224465 
0.0115845 0.121127 -0.0125402 
0.00903586 0.100133 -0.0220275 
-0.0285891 0.0935252 -0.0252241 
-0.0273522 0.0939518 -0.0257303 
-0.0261065 0.0944666 -0.0262366 
-0.0248167 0.0949702 -0.0267501 
0.0139517 0.124505 -0.00617757 
0.0366018 0.0989128 -0.0107075 
-0.0235591 0.0953745 -0.0271663 
-0.0043048 0.123153 -0.010566 
0.0106204 0.119324 -0.014581 
0.00962081 0.119433 -0.0146957 
0.000359464 0.0907103 -0.0342066 
0.0533305 0.0723883 0.0073663 
-0.00330066 0.124033 -0.00952648 
-0.00342912 0.0915905 -0.0351346 
0.0341879 0.0913684 -0.0166968 
0.0350622 0.0909926 -0.0162992 
0.00364343 0.0960341 -0.0296841 
-0.0125598 0.0943837 -0.0340846 
-0.0114982 0.0943996 -0.0340943 
0.0205436 0.121905 -0.00538746 
0.018776 0.122594 -0.0061273 
0.019654 0.122236 -0.00577023 
0.0214379 0.121585 -0.00505488 
0.0178615 0.122874 -0.00643626 
0.0169165 0.123099 -0.00667688 
-0.023326 0.122164 -0.00726067 
-0.0210403 0.122456 -0.00761783 
-0.0199406 0.122541 -0.00772092 
-0.0189216 0.122512 -0.00768052 
-0.00527436 0.124342 -0.0098488 
-0.00638198 0.124385 -0.00985914 
-0.0086348 0.124041 -0.00947049 
-0.0157593 0.121529 -0.00864145 
-0.00747948 0.0919417 -0.035549 
0.0359032 0.0905437 -0.0158269 
0.0366564 0.089932 -0.0151793 
0.0287652 0.114389 -0.00726895 
0.0329815 0.112282 -0.00498623 
0.0337455 0.11169 -0.0043358 
-0.0135961 0.12464 -0.00600832 
0.0359226 0.0926166 -0.0140085 
0.00270214 0.10527 -0.0214784 
-0.0223025 0.0957816 -0.0275832 
0.0223281 0.111319 -0.0139783 
0.0196594 0.10025 -0.0221259 
0.0374058 0.0893177 -0.0145297 
-0.0179257 0.0971306 -0.0269629 
0.0353216 0.0863185 -0.0174167 
0.0336501 0.0872305 -0.0183746 
0.00937092 0.0937948 -0.0292997 
0.0496183 0.0673428 0.0005193 
0.00311717 0.113125 -0.0199945 
0.0106278 0.12033 -0.0136749 
0.0268137 0.118694 -0.00391821 
0.0258455 0.110181 -0.0127425 
0.0314584 0.111437 -0.00809824 
-0.0211666 0.0959679 -0.0277597 
-0.0284948 0.111359 -0.0178892 
0.0436593 0.058746 -0.00488132 
0.0381644 0.0887078 -0.0138852 
-0.00645384 0.126073 -0.0076982 
0.00338984 0.116722 -0.0177517 
0.0237552 0.0887468 -0.0239425 
-0.0147383 0.10835 -0.0207588 
-0.0158006 0.108342 -0.0207487 
-0.00891802 0.0982381 -0.0280905 
0.00917706 0.113608 -0.0184169 
-0.00868026 0.111843 -0.0204858 
0.0438775 0.06952 0.000229591 
0.0350851 0.0848737 -0.0178837 
0.0361999 0.103252 -0.0093129 
0.025598 0.0610493 -0.0236458 
0.0168546 0.104974 -0.0191686 
0.00234985 0.1177 -0.0168004 
-0.0252093 0.112572 -0.0171753 
-0.00988755 0.103466 -0.0236142 
0.0158478 0.102035 -0.022 
0.0126337 0.110109 -0.0186257 
-0.0137851 0.096091 -0.0318323 
-0.0185539 0.095955 -0.0297446 
0.0301667 0.116977 -0.00204442 
0.0206713 0.0868458 -0.0260413 
0.0313508 0.109263 -0.00976359 
0.0296893 0.110128 -0.0107004 
0.0094151 0.117047 -0.0161127 
0.0074278 0.117326 -0.0164147 
-0.010059 0.109235 -0.0217082 
0.0512305 0.0723962 0.00737259 
0.046342 0.0671736 0.000660587 
0.0311435 0.0885162 -0.0196004 
0.0231929 0.110938 -0.0135659 
-0.0148324 0.107132 -0.0214612 
0.016843 0.101962 -0.021958 
-0.0105368 0.0850533 -0.0384463 
0.00653601 0.0924318 -0.0319265 
0.00374161 0.0952291 -0.0308324 
0.00842498 0.094018 -0.0295425 
-0.0142621 0.120334 -0.0114431 
0.00789859 0.0999878 -0.0218807 
-0.0033226 0.122983 -0.0103909 
-0.0063009 0.09425 -0.0339062 
0.0121427 0.124109 -0.00776299 
-0.0144059 0.112046 -0.0186792 
-0.0254305 0.0357675 -0.0290845 
-0.0199914 0.0962147 -0.0280142 
-0.0188119 0.0964492 -0.0282644 
-0.0176693 0.0966335 -0.0284397 
-0.0164919 0.0968814 -0.0286925 
-0.0153516 0.0970497 -0.0288687 
-0.0142085 0.0972199 -0.0290358 
-0.0187173 0.108826 -0.0212527 
0.0130247 0.112857 -0.017601 
0.014854 0.103191 -0.021265 
0.0158783 0.103153 -0.0212298 
0.0145822 0.10067 -0.0225932 
-0.00658339 0.116828 -0.0157946 
-0.00744498 0.124256 -0.00972454 
-0.00981592 0.123797 -0.00918874 
-0.0220536 0.0952953 -0.0290683 
-0.0232226 0.0950277 -0.0288098 
-0.0119418 0.120727 -0.011899 
-0.0244677 0.122018 -0.00707965 
-0.0224767 0.091498 -0.0352097 
0.00964377 0.120482 -0.0138306 
0.00862183 0.120558 -0.0139068 
-0.0158582 0.107196 -0.0215252 
0.00194863 0.100763 -0.0227079 
0.0116034 0.0355849 -0.021581 
-0.0130717 0.0973914 -0.0292103 
-0.011049 0.124435 -0.00785173 
0.0232727 0.0989983 -0.0208236 
-0.016783 0.0973001 -0.0271368 
-0.0295885 0.120405 -0.00932945 
0.00748569 0.0942514 -0.0297902 
0.0213104 0.092205 -0.0236008 
-0.027433 0.108265 -0.0206521 
-0.00743438 0.120242 -0.0134406 
-0.0166332 0.101644 -0.0236856 
0.0514429 0.0626408 -0.00275857 
0.00830607 0.0917456 -0.031199 
-0.00451637 0.113738 -0.0185133 
0.0248664 0.0898261 -0.023121 
0.0144798 0.109585 -0.0180587 
-0.00246627 0.111608 -0.0202454 
-0.0177322 0.108689 -0.0211068 
0.0252284 0.116758 -0.00782512 
-0.0240311 0.112816 -0.0174462 
0.0183373 0.109817 -0.016338 
-0.000234213 0.0957245 -0.0313684 
0.0383558 0.102292 -0.0062663 
-0.00648076 0.0969085 -0.030657 
0.0317719 0.115994 -0.000976469 
0.0347025 0.105449 -0.00966587 
0.0250009 0.0629104 -0.0235842 
0.00748118 0.122397 -0.0118721 
0.0053984 0.122421 -0.0118951 
-0.00423283 0.0951855 -0.0328472 
0.0338583 0.105892 -0.0101458 
0.00645879 0.122419 -0.0119062 
0.00854238 0.122369 -0.0118647 
0.00956448 0.122301 -0.0117968 
0.0105493 0.122164 -0.0116505 
0.0115311 0.122019 -0.0114981 
0.0155707 0.100538 -0.0224673 
0.0198288 0.120602 -0.00797301 
0.0207343 0.120306 -0.00765281 
-0.00104637 0.116277 -0.0172455 
0.00122691 0.116615 -0.0176232 
0.0092124 0.114671 -0.0175632 
0.0082875 0.114937 -0.017843 
-0.0283013 0.113756 -0.016413 
0.0458479 0.0724092 0.00333418 
-0.017033 0.0949215 -0.0326512 
0.0152676 0.11708 -0.0141694 
-0.0119956 0.0882297 -0.0377812 
0.016822 0.123899 -0.00554312 
-0.0140302 0.116852 -0.0157862 
-0.0129648 0.116833 -0.0157687 
0.004329 0.114453 -0.0192954 
0.0336337 0.112484 -0.0031866 
-0.00951583 0.0848597 -0.0382215 
0.027747 0.0902677 -0.021551 
-0.0285179 0.0948797 -0.0246293 
0.0522547 0.0611036 -0.00320855 
0.0531449 0.0608429 -0.00288049 
0.0539548 0.0603844 -0.00239402 
0.0546876 0.0597691 -0.00173886 
0.0465866 0.0714909 0.00427537 
0.047295 0.0711844 0.0046334 
-0.0240218 0.119915 -0.0108978 
0.0330446 0.111446 -0.00610948 
-0.0023355 0.0926921 -0.0342848 
-0.00332118 0.0928352 -0.0344367 
-0.00431394 0.0929621 -0.0345661 
-0.00533435 0.0930519 -0.0346806 
-0.00635915 0.0931082 -0.0347376 
-0.00738223 0.0931774 -0.0348179 
-0.0084076 0.0932235 -0.0348708 
-0.00946933 0.0932363 -0.0348935 
-0.0104939 0.0933018 -0.0349679 
-0.0114787 0.0934019 -0.0350786 
-0.012585 0.0933765 -0.0350613 
-0.0136058 0.093388 -0.035076 
-0.0147076 0.0933085 -0.0349989 
-0.0158055 0.0931896 -0.0348885 
-0.0183288 0.115615 -0.0164437 
-0.0135504 0.122737 -0.00796322 
0.0140839 0.123776 -0.0073928 
-0.0139593 0.0967237 -0.0305143 
-0.0150968 0.0965608 -0.0303463 
-0.0168907 0.0921233 -0.0358082 
0.00759602 0.120603 -0.0139518 
0.0483563 0.0710513 0.00477309 
-0.0119302 0.0975527 -0.0293786 
-0.0108678 0.0975625 -0.0293851 
-0.0228558 0.113062 -0.0177116 
0.0285239 0.105924 -0.0141978 
-0.0147266 0.0922559 -0.0359307 
-0.0262987 0.113585 -0.0162365 
0.0149059 0.124307 -0.00595517 
-0.0053845 0.126096 -0.00772897 
0.000980617 0.120181 -0.0134191 
0.000828067 0.123861 -0.00936286 
0.00307304 0.124054 -0.00961404 
-0.0170833 0.0896859 -0.0373218 
-0.018198 0.0896163 -0.0372798 
0.0494532 0.0710682 0.00472592 
0.0505588 0.0711508 0.00463977 
0.0516174 0.0711387 0.00464104 
0.0526374 0.0710929 0.00470311 
-0.0002129 0.122901 -0.0103152 
0.0286561 0.108194 -0.012625 
0.0536516 0.0710277 0.00477709 
-0.00984328 0.0975178 -0.0293224 
-0.0153159 0.119411 -0.012435 
0.0262919 0.101687 -0.017683 
-0.00874511 0.0976201 -0.0294139 
0.0180384 0.119266 -0.0105437 
0.054633 0.0708998 0.00492223 
0.0354948 0.10491 -0.00909103 
-0.0121876 0.113225 -0.0179296 
0.0555717 0.0706847 0.00515518 
0.0564615 0.0703554 0.0055259 
0.057327 0.0700157 0.00587175 
0.058107 0.0694858 0.00643586 
-0.0282448 0.11486 -0.0155715 
-0.0181312 0.0948304 -0.0325641 
0.0269219 0.115924 -0.00692402 
-0.0111671 0.0867859 -0.0382994 
-0.0102744 0.0864318 -0.0379838 
0.0177807 0.10571 -0.0179484 
0.0179331 0.121039 -0.00844165 
0.0161504 0.121694 -0.0091598 
0.0261418 0.0859362 -0.0230192 
0.000745542 0.0955759 -0.0312149 
0.0188897 0.120837 -0.00821554 
0.0170202 0.121328 -0.0087569 
0.0143083 0.122234 -0.00973054 
0.0288394 0.112544 -0.00929606 
0.015252 0.122005 -0.00948865 
-0.00233373 0.114874 -0.0177321 
0.0130913 0.0937889 -0.0272955 
-0.0174982 0.111166 -0.0197324 
-0.0207265 0.111071 -0.0196229 
-0.0217829 0.111029 -0.0195757 
0.0277777 0.108556 -0.0130095 
0.0259403 0.1091 -0.0135959 
3.04988e-005 0.11432 -0.019028 
0.00110358 0.114412 -0.0192684 
0.0383367 0.0910432 -0.012345 
0.0260088 0.0910229 -0.0223512 
0.00809551 0.112572 -0.0192987 
0.0282353 0.0775351 -0.0225519 
0.0274272 0.0781922 -0.0230908 
0.0258821 0.0794179 -0.0243188 
0.049328 0.0615911 -0.00371844 
0.0503466 0.0615208 -0.00363326 
0.0513324 0.0613858 -0.00348738 
0.00541955 0.0912903 -0.0327619 
0.0131024 0.123925 -0.00754958 
0.00337017 0.091416 -0.0329064 
0.00242842 0.0916453 -0.033159 
0.00150165 0.0919153 -0.0334107 
0.000567537 0.0921561 -0.0336854 
-0.000397685 0.0923281 -0.0338988 
-0.00135158 0.0925397 -0.0341169 
0.0451079 0.0636949 -0.00183531 
0.046214 0.0637709 -0.0019104 
0.0473189 0.0638822 -0.00202275 
0.0484193 0.0639761 -0.00211304 
0.0494857 0.064014 -0.00214923 
0.0505447 0.0640078 -0.00213219 
0.0515389 0.0638758 -0.00198972 
0.0524799 0.0636428 -0.00173686 
0.0533817 0.063336 -0.00140725 
0.0541934 0.0628656 -0.00090927 
0.054979 0.06227 -0.000302264 
0.0557083 0.0616421 0.000366134 
0.00543406 0.120555 -0.0138758 
0.0172432 0.108764 -0.0171862 
-0.016912 0.0931258 -0.0348233 
-0.0179307 0.0931593 -0.0348763 
0.0142116 0.123033 -0.00860213 
-0.000792652 0.0894877 -0.0349748 
-0.00175042 0.0897209 -0.0353687 
-0.00265737 0.0899953 -0.0354905 
-0.00233157 0.122878 -0.010278 
-0.0104985 0.0362063 -0.0254961 
-0.00994641 0.0339021 -0.0251924 
-0.0296544 0.0346993 -0.0301222 
0.0190541 0.116198 -0.0132311 
0.0219046 0.0892697 -0.0245066 
-0.0295217 0.0402041 -0.0298306 
-0.00768132 0.0976452 -0.0294292 
0.00461042 0.092806 -0.0323339 
-0.00887527 0.109466 -0.0219533 
-0.021864 0.108885 -0.0213157 
-0.0129882 0.119781 -0.0128781 
0.0214747 0.0996539 -0.0214946 
-0.0125561 0.107483 -0.0218463 
0.00212883 0.120316 -0.0135831 
-0.0284862 0.120462 -0.00941436 
0.00192116 0.123969 -0.00948312 
0.0052003 0.124064 -0.00964829 
-0.0138904 0.0897489 -0.0373664 
-0.0128628 0.0896836 -0.0372956 
-0.0160243 0.0897174 -0.0373532 
0.0159709 0.0859869 -0.0291978 
0.0168479 0.0856792 -0.0288312 
0.0391135 0.0904981 -0.0117677 
0.0351088 0.100136 -0.012024 
0.0541025 0.0616928 -0.00172111 
0.0171797 0.119654 -0.0109592 
0.0205734 0.0999616 -0.0218299 
0.00147386 0.103921 -0.02207 
0.0193852 0.0915557 -0.024942 
-0.0254216 0.0999543 -0.0239282 
-0.0243216 0.10004 -0.0240037 
-0.0232574 0.100051 -0.0240138 
-0.00333701 0.121977 -0.0113118 
0.0520156 0.0596733 -0.00368903 
0.0511122 0.059915 -0.00400422 
0.0491876 0.0602673 -0.00438234 
0.0502575 0.0602229 -0.00418894 
-0.00931865 0.0862591 -0.0377315 
-0.00247117 0.091392 -0.0349524 
-0.02076 0.0347198 -0.0277376 
0.0220892 0.0906332 -0.0239505 
-0.015827 0.0921385 -0.0358122 
-0.0250745 0.0954862 -0.0252675 
-0.0123796 0.124965 -0.00637162 
0.0138422 0.0901622 -0.0294996 
0.0124215 0.122685 -0.01021 
-0.0192308 0.0947234 -0.0324688 
-0.0280195 0.0378733 -0.0295429 
0.0269115 0.116892 -0.00595645 
-0.0214492 0.0963545 -0.0261739 
0.0241638 0.0853333 -0.0244737 
0.0189265 0.119915 -0.00924366 
-0.0250413 0.0925197 -0.0322644 
0.0328365 0.0876935 -0.0188869 
0.00860136 0.121512 -0.0129363 
0.0268943 0.0906576 -0.0219805 
0.0306311 0.076191 -0.0209647 
-0.020238 0.0938075 -0.0335417 
0.0438286 0.0611702 -0.00330591 
0.0449793 0.061326 -0.0034541 
0.0460928 0.061454 -0.00359733 
0.0471561 0.0614873 -0.00363177 
0.0482689 0.0616107 -0.00376704 
0.00816432 0.0904541 -0.0318561 
0.0073001 0.0907939 -0.0322622 
0.00639772 0.0911374 -0.0325899 
-0.0125993 0.0922824 -0.0359459 
0.0134275 0.117615 -0.0147491 
-0.00149609 0.0912323 -0.0347548 
-0.0221188 0.100222 -0.0241961 
0.0416942 0.0655359 -0.00371801 
0.0422139 0.06433 -0.00247442 
0.0430174 0.0637781 -0.0018983 
0.043967 0.0636126 -0.00172463 
-0.0111161 0.125335 -0.00680126 
0.047721 0.0729559 0.00883547 
0.00165238 0.0932332 -0.0327923 
-0.00422597 0.10111 -0.0231367 
0.0367496 0.0931371 -0.012555 
0.032634 0.0954843 -0.0150589 
0.0268942 0.0988154 -0.0185978 
0.0234322 0.100371 -0.0202365 
0.0439094 0.0623682 -0.0025277 
-0.00645816 0.122156 -0.0114796 
-0.00749956 0.121159 -0.0124082 
0.0217031 0.104101 -0.0182402 
0.0255053 0.103245 -0.0173339 
0.00274784 0.0953419 -0.0309592 
0.0306065 0.111866 -0.00856301 
0.0083446 0.116042 -0.0170347 
-0.0190349 0.0930706 -0.0347914 
-0.0201767 0.0929008 -0.0346271 
-0.010101 0.102023 -0.0240718 
-0.00364386 0.0901332 -0.0356262 
-0.0123378 0.123047 -0.00831897 
-0.00661675 0.0976221 -0.0294208 
-0.0133438 0.11201 -0.0186315 
0.0516874 0.0662489 -0.000355134 
-0.0141183 0.115602 -0.0164489 
0.0186953 0.0943115 -0.0238444 
0.03545 0.105907 -0.00815474 
0.0162665 0.119939 -0.0112703 
0.0199074 0.11877 -0.0100039 
-0.0272643 0.118767 -0.0116611 
0.0177903 0.112808 -0.0155711 
0.0156574 0.0925729 -0.0260099 
-0.0275896 0.0398384 -0.0294326 
-0.00151782 0.111398 -0.0200294 
0.0163086 0.108997 -0.0174538 
0.0159998 0.123366 -0.00698095 
-0.00563259 0.0974901 -0.0292726 
-0.00444148 0.0916785 -0.0352643 
-0.00453349 0.0975685 -0.029357 
-0.0237033 0.091176 -0.0348871 
-0.0302701 0.0365155 -0.0302567 
-0.0273178 0.113609 -0.0162558 
-0.0163998 0.119263 -0.0123023 
0.00323101 0.120377 -0.0136716 
0.00413437 0.124074 -0.00964261 
-0.0149576 0.0897382 -0.0373658 
-0.0239408 0.0886576 -0.0363455 
-0.0227541 0.0889021 -0.0365754 
0.0151613 0.0863718 -0.029541 
-0.00350831 0.0975151 -0.0292875 
0.0227707 0.10612 -0.0163977 
-0.0309617 0.044825 -0.0281993 
-0.0285904 0.110146 -0.0186081 
-0.00443456 0.111901 -0.0205597 
0.0197485 0.105413 -0.017636 
-0.00855639 0.121127 -0.0123669 
-0.0022961 0.120938 -0.0122094 
0.0338763 0.0978118 -0.0135516 
-0.00861199 0.118019 -0.01506 
0.0261658 0.0809584 -0.0239333 
0.0269298 0.0804165 -0.0233375 
0.0276968 0.0797349 -0.0226793 
0.0481264 0.060275 -0.00442661 
0.0470549 0.0602552 -0.00440662 
0.0459848 0.0602104 -0.00435135 
0.0448746 0.0601039 -0.00424277 
0.0437641 0.0599949 -0.00412714 
0.0426589 0.0598822 -0.00401987 
0.000709469 0.125628 -0.00726116 
-0.0174184 0.0961382 -0.0299203 
0.0405643 0.0599899 -0.00408877 
0.0416146 0.0598915 -0.00407392 
-0.00967767 0.118026 -0.0150602 
0.0523234 0.0724358 0.00729932 
0.0114372 0.12283 -0.0103617 
0.013368 0.122467 -0.00997636 
-0.0110119 0.122536 -0.00980812 
-0.0122779 0.122169 -0.00937841 
-0.00979508 0.122843 -0.0101629 
-0.00750765 0.123161 -0.01054 
-0.00635478 0.123294 -0.010702 
-0.0100186 0.0981603 -0.0280043 
0.0142784 0.11622 -0.015243 
-0.0202902 0.0906146 -0.0362948 
-0.0129458 0.117871 -0.0148632 
0.0417493 0.0611977 -0.0033567 
0.0427869 0.0611675 -0.0033403 
0.0128104 0.0891816 -0.030491 
0.0118631 0.0894057 -0.0307263 
0.0169892 0.122251 -0.00777586 
0.00995573 0.0897855 -0.0311748 
0.00904636 0.090083 -0.0314826 
-0.0302748 0.116055 -0.0148216 
0.0304033 0.107421 -0.0117891 
-0.0115345 0.0922826 -0.0359317 
-0.0140104 0.117853 -0.0148385 
-0.0270641 0.0376545 -0.0293745 
0.0231651 0.0624431 -0.0251426 
-0.0229201 0.115998 -0.0147881 
-0.0218136 0.116051 -0.0148581 
-0.0206698 0.116197 -0.0150314 
-0.019536 0.116371 -0.0152209 
-0.00115741 0.0949656 -0.0326157 
-0.00020637 0.0947598 -0.0324026 
0.000769534 0.0946028 -0.0322154 
0.00174762 0.0944417 -0.0320379 
0.00273738 0.0943137 -0.0318997 
0.00372222 0.0941665 -0.0317421 
0.0047217 0.0940547 -0.0316305 
0.00569172 0.093878 -0.0314287 
0.00660528 0.0935786 -0.0311099 
0.00749081 0.093253 -0.0307631 
0.00836869 0.0928852 -0.0303774 
0.0093177 0.0926652 -0.0301396 
0.0102735 0.0924657 -0.0299319 
0.00412979 0.113096 -0.0199676 
-0.0172476 0.114664 -0.0174436 
-0.026364 0.0359692 -0.029405 
-0.0213227 0.0927441 -0.0344661 
-0.0224559 0.092554 -0.0342812 
-0.0210545 0.100222 -0.024166 
-0.0183957 0.116542 -0.0154107 
0.0126673 0.104052 -0.020179 
-0.0110742 0.123419 -0.00875247 
-0.00667005 0.0904165 -0.0359686 
-0.00765334 0.0905691 -0.0361471 
-0.0161934 0.116736 -0.0156361 
0.0394434 0.0585828 -0.00486619 
0.0452209 0.0659646 -0.000116442 
0.0354547 0.103863 -0.00997386 
0.0338372 0.104851 -0.0110391 
0.0260543 0.116303 -0.00733098 
-0.0177227 0.119786 -0.0108098 
-0.0202736 0.0966137 -0.0264451 
0.0239731 0.061977 -0.0246362 
-0.015124 0.037267 -0.0266656 
-0.00946746 0.0362215 -0.025425 
-0.0139288 0.0883705 -0.0380287 
-0.0150862 0.116786 -0.0157023 
-0.0118972 0.116803 -0.015741 
0.0242032 0.0987613 -0.0205495 
0.00882643 0.110931 -0.0195298 
-0.00773224 0.109619 -0.0221011 
0.0207016 0.113271 -0.0140876 
0.0345802 0.103262 -0.0113359 
-0.0205151 0.114503 -0.0172551 
-0.0240368 0.11082 -0.0193477 
0.024653 0.104647 -0.0168345 
0.0358581 0.0995241 -0.0113664 
0.0269849 0.113053 -0.00983991 
0.0344847 0.0868408 -0.0179179 
0.00658649 0.0945677 -0.0301242 
0.0195371 0.122997 -0.00457304 
-0.0215446 0.0942792 -0.0320343 
-0.0204271 0.0893191 -0.0369723 
0.05068 0.0673838 0.000483718 
-0.0110454 0.113378 -0.0180964 
0.033847 0.106899 -0.00922375 
-0.00248627 0.097432 -0.0292057 
-0.0265042 0.106069 -0.02235 
-0.0124244 0.108763 -0.0212047 
-0.0118501 0.11995 -0.013068 
-0.00149557 0.0973426 -0.0290749 
0.0274527 0.103904 -0.0160338 
-0.0197167 0.103079 -0.0233045 
0.0126767 0.102031 -0.0220157 
-0.0126802 0.0961728 -0.031918 
0.0319522 0.103353 -0.0134365 
-0.00991099 0.115578 -0.0164445 
0.0211822 0.0909362 -0.0242734 
0.0279315 0.0813321 -0.0222629 
0.0284604 0.079188 -0.0220838 
0.0292759 0.0787271 -0.0215887 
-0.0282259 0.115945 -0.0147131 
0.0112963 0.123527 -0.00913288 
0.00724714 0.123914 -0.00950504 
-0.0191994 0.0907344 -0.0364225 
0.0548584 0.0611516 -0.00113589 
0.00622241 0.123988 -0.00957575 
-0.00543271 0.0918052 -0.0353894 
0.0204818 0.0854612 -0.0266087 
-0.0208111 0.118967 -0.0119295 
0.00224905 0.118538 -0.0156887 
0.0474345 0.0682488 0.00159582 
-0.0299927 0.0436118 -0.0290457 
0.033292 0.0856433 -0.0187503 
0.0485378 0.0682762 0.00156381 
0.0496382 0.068363 0.00147832 
-0.00364871 0.0982082 -0.0280452 
-0.0245144 0.0945317 -0.028309 
-0.0238067 0.0899629 -0.0356649 
-0.0225227 0.0903335 -0.0360154 
-0.0213902 0.0905176 -0.0361974 
-0.00232624 0.124886 -0.00844394 
0.0101685 0.124401 -0.00806495 
0.00514071 0.12498 -0.00862525 
0.018711 0.100467 -0.0223545 
0.00655622 0.121628 -0.0130526 
0.00961895 0.12141 -0.0128393 
-0.0183958 0.0360837 -0.0274195 
0.0222264 0.09191 -0.0233017 
0.015055 0.123588 -0.00721903 
-0.0283175 0.0963396 -0.0241496 
-0.027235 0.0964545 -0.0242996 
-0.0259964 0.0967524 -0.0245741 
-0.0248989 0.0968475 -0.0246804 
-0.02384 0.0968692 -0.0247025 
-0.0227746 0.0968676 -0.024693 
-0.0200728 0.100101 -0.0240875 
-0.0216758 0.0969718 -0.024798 
-0.0205392 0.0971418 -0.0249761 
0.00176163 0.130465 0.00157228 
0.00286437 0.130486 0.00148286 
0.00388853 0.130454 0.00153712 
0.00495057 0.130435 0.00152594 
0.00597686 0.130404 0.00157669 
-0.0193476 0.0973552 -0.0251961 
-0.0181652 0.097581 -0.0254283 
-0.0170028 0.0977503 -0.0256286 
-0.015856 0.0980295 -0.0258983 
-0.0147843 0.0981951 -0.0260468 
-0.0136152 0.0982979 -0.0261721 
-0.0272212 0.114809 -0.0155223 
0.0239484 0.0901184 -0.0234122 
-0.0143101 0.113201 -0.0178955 
0.00340822 0.117733 -0.0168392 
0.0217161 0.119158 -0.00841047 
-0.00056724 0.0909565 -0.0345037 
0.0112159 0.0922395 -0.029689 
0.01215 0.0919974 -0.0294248 
-0.0162644 0.11453 -0.017303 
-0.0124346 0.0985527 -0.0264295 
-0.0113381 0.0986434 -0.0265191 
0.00517588 0.113065 -0.0197995 
-0.0102337 0.0987343 -0.0266102 
-0.0237309 0.092173 -0.0338912 
-0.0170398 0.124093 -0.00535053 
-0.00425208 0.0941246 -0.0337645 
0.0243112 0.0999667 -0.0198415 
-0.00864132 0.0907031 -0.0362798 
-0.0096598 0.0907753 -0.0363722 
-0.010683 0.0908469 -0.0364652 
-0.0117053 0.0909225 -0.0365538 
0.044724 0.0588042 -0.00496063 
0.0346554 0.10439 -0.0105413 
0.0187342 0.112585 -0.0153321 
-0.0261657 0.11885 -0.0117616 
-0.00913054 0.0987984 -0.026694 
-0.00806953 0.0988363 -0.0267114 
-0.00701023 0.0988653 -0.0267279 
0.000901863 0.122026 -0.0113896 
-0.00594641 0.0989148 -0.0267499 
-0.000472926 0.0972534 -0.0289903 
0.0250818 0.0983923 -0.0201688 
0.0135498 0.109816 -0.0183273 
-0.00484603 0.0989761 -0.0268273 
-0.00385823 0.0988046 -0.0266644 
0.0214753 0.11175 -0.0144217 
-0.0262667 0.110544 -0.0190457 
0.000515293 0.09714 -0.0288497 
0.00149737 0.0969588 -0.0286791 
-0.00279591 0.0988433 -0.0266823 
-0.0203692 0.094546 -0.032294 
0.0506634 0.0663167 -0.000433246 
-0.0215596 0.0891328 -0.036783 
-0.0109726 0.115573 -0.0164387 
0.0330115 0.107346 -0.00970764 
0.0321567 0.107734 -0.010124 
0.0346775 0.106404 -0.00868031 
-0.000194321 0.121911 -0.011267 
-0.00177026 0.0987839 -0.0266092 
0.0238471 0.107154 -0.0155051 
-0.0209519 0.121676 -0.0087885 
0.0252655 0.0864752 -0.0236184 
-0.000747471 0.0987058 -0.0265343 
0.0303577 0.105377 -0.0136057 
0.0361287 0.085855 -0.0169039 
0.0400974 0.0943736 -0.00783899 
0.0393164 0.0948581 -0.00836399 
0.0311086 0.103751 -0.0138751 
-0.0178575 0.122517 -0.00769635 
-0.0115598 0.09531 -0.0330219 
-0.00884754 0.115581 -0.0164541 
0.00023463 0.0985537 -0.0263753 
0.00118569 0.0983354 -0.0261952 
0.00218868 0.098191 -0.0260404 
0.0271866 0.0819517 -0.0229154 
0.0264267 0.0824949 -0.0235141 
0.0256492 0.0831048 -0.024123 
0.0248383 0.0835695 -0.0246296 
0.0239781 0.084017 -0.0250643 
0.0231411 0.0844685 -0.0255261 
0.0222475 0.0847573 -0.0259093 
0.0213669 0.0851498 -0.0262488 
0.0196024 0.0858351 -0.0269873 
0.0187338 0.0862153 -0.0273821 
0.0179038 0.0866718 -0.0278625 
0.0463736 0.0682111 0.00160519 
0.0105421 0.118176 -0.0153416 
0.00317805 0.0980649 -0.0258881 
-0.0157643 0.0353272 -0.0263783 
0.00413641 0.0979047 -0.0256761 
-0.0190093 0.100114 -0.02409 
0.0408836 0.0614281 -0.00367417 
0.0102589 0.100444 -0.0223447 
0.031034 0.0964814 -0.0161287 
0.00516194 0.0978455 -0.0256065 
-0.0179474 0.100123 -0.0240926 
-0.0185092 0.127137 0.00354165 
-0.0168818 0.100112 -0.0240537 
-0.0161125 0.127667 0.00290411 
-0.0149347 0.127911 0.00262222 
-0.0137571 0.128142 0.00234571 
-0.0125367 0.128434 0.00198737 
-0.0113995 0.128605 0.00179072 
-0.0102615 0.128766 0.00159795 
-0.00902947 0.129018 0.00125187 
-0.00789583 0.129197 0.00105287 
-0.00680153 0.129324 0.00093339 
-0.00565778 0.12946 0.000751082 
-0.00451438 0.1296 0.000561158 
-0.00341476 0.129699 0.000449344 
-0.00231448 0.129778 0.000344647 
-0.00121026 0.129846 0.000241032 
-0.000107958 0.12991 0.000141982 
0.000950727 0.129943 0.000110463 
0.00205693 0.129985 1.8398e-005 
0.00312017 0.129984 5.00643e-007 
0.00414244 0.129952 4.9397e-005 
0.00520505 0.129939 3.61829e-005 
0.00623037 0.129867 0.000104943 
0.00725591 0.129807 0.000165614 
0.00824452 0.129671 0.000311795 
0.00926262 0.129557 0.000393265 
0.0102193 0.129407 0.000604352 
0.0112062 0.129253 0.000760937 
0.00613975 0.0976727 -0.0254362 
0.00712802 0.0975509 -0.0252935 
0.00806894 0.0972917 -0.0250353 
0.00905498 0.0971664 -0.0248901 
0.0442629 0.0672699 0.000591455 
0.010042 0.0970288 -0.0247384 
0.0286264 0.0638437 -0.020406 
0.0157473 0.0947545 -0.0243195 
0.0188415 0.121733 -0.00718615 
0.0130281 0.0916311 -0.029044 
0.0139221 0.0913152 -0.0287052 
0.00251855 0.096887 -0.0286022 
0.0334736 0.0940135 -0.0155006 
-0.00425848 0.0961384 -0.0318255 
0.0282492 0.102359 -0.0164093 
0.0189212 0.0875932 -0.0268145 
-0.0135985 0.108507 -0.0209218 
0.0277597 0.0984362 -0.0181936 
0.0334725 0.0950337 -0.0145821 
0.0383601 0.0921445 -0.0115002 
-0.0153553 0.112218 -0.0188504 
-0.0127292 0.0909963 -0.036642 
-0.0137194 0.091107 -0.0367438 
0.0458379 0.0588925 -0.00503856 
0.0469104 0.0589185 -0.00506663 
0.0479414 0.0588591 -0.00500215 
0.000924532 0.100829 -0.0227814 
0.0110282 0.0968851 -0.0245853 
0.0278568 0.0643129 -0.0209613 
0.0197906 0.106497 -0.0168156 
-0.0159391 0.0999021 -0.023843 
-0.0109132 0.103533 -0.0236899 
0.0321886 0.108821 -0.00928902 
0.0268148 0.0976356 -0.019356 
0.0120082 0.0967361 -0.024421 
0.0130231 0.0965172 -0.0241956 
0.0177346 0.123618 -0.0052308 
0.00096833 0.121103 -0.0124156 
-0.0149615 0.0883672 -0.0380383 
0.0325508 0.115423 -0.000329209 
0.0162777 0.117973 -0.0131407 
0.0218218 0.116393 -0.0114503 
-0.0145896 0.101524 -0.0235873 
0.0368805 0.101462 -0.00941022 
0.00429457 0.122356 -0.0118056 
0.00350354 0.0967589 -0.0284524 
-0.020574 0.115387 -0.0161841 
-0.0239808 0.0936155 -0.0313592 
0.0408829 0.0937805 -0.00720194 
0.029367 0.1045 -0.0146741 
0.0302694 0.104198 -0.014346 
0.0202805 0.12337 -0.00295598 
0.0535789 0.0658041 0.000119664 
-0.00774122 0.115628 -0.0165086 
0.0139014 0.0962996 -0.0239693 
0.0305321 0.081181 -0.0200863 
-0.0149561 0.0997734 -0.0237179 
0.0302841 0.11623 -0.00325108 
-0.0138967 0.099791 -0.0237429 
-0.010796 0.120869 -0.0120713 
0.0158804 0.124131 -0.00578699 
0.0148643 0.0961115 -0.0237665 
0.0170669 0.0871276 -0.028336 
0.0162564 0.0875946 -0.0288434 
0.0154065 0.0880419 -0.0292971 
0.0145599 0.088488 -0.0297413 
0.0137018 0.0888713 -0.0301465 
0.0485408 0.0662379 -0.000364329 
-0.017323 0.112508 -0.01916 
0.0158504 0.0959717 -0.0236278 
-0.0217254 0.126122 0.00269746 
-0.0205455 0.126353 0.00242085 
-0.0193661 0.126578 0.00214409 
-0.0181782 0.126773 0.00187925 
-0.0170034 0.127025 0.0015954 
-0.0158277 0.127263 0.00131837 
-0.0146006 0.127548 0.000963555 
-0.0134774 0.127753 0.000758007 
-0.0122454 0.128019 0.000407111 
-0.0110606 0.128229 0.000136123 
-0.00992638 0.128404 -5.81123e-005 
-0.00874133 0.128614 -0.000328304 
-0.00760577 0.128788 -0.000526473 
-0.0064667 0.128955 -0.000718006 
-0.00536465 0.129031 -0.000823415 
-0.00426203 0.129106 -0.000929037 
-0.00316211 0.129199 -0.00103699 
-0.00205946 0.129266 -0.00113907 
-0.000994561 0.129288 -0.0011666 
6.3531e-005 0.129314 -0.00119744 
0.00116984 0.129366 -0.00128907 
0.00223085 0.129379 -0.00131325 
0.00329475 0.129383 -0.00133175 
0.00435827 0.129372 -0.0013469 
0.00542168 0.12935 -0.00135496 
0.00644358 0.129282 -0.00129108 
0.0074706 0.129229 -0.00123166 
0.00845802 0.129083 -0.00108013 
0.00944326 0.128939 -0.000930002 
0.0104303 0.128801 -0.000781749 
0.0114155 0.128646 -0.000626619 
0.0123659 0.128443 -0.000397752 
0.0133357 0.128238 -0.000223601 
0.0142482 0.127965 9.03059e-005 
0.01519 0.127729 0.000331934 
0.0168648 0.0958851 -0.0235234 
0.0178585 0.0957539 -0.0234025 
0.018845 0.0956057 -0.0232473 
0.0198113 0.0954368 -0.0230239 
0.018169 0.108481 -0.0169141 
-0.0187755 0.107692 -0.0220397 
-0.0178239 0.107521 -0.0218927 
0.0147945 0.0909396 -0.0283095 
0.0156162 0.0904755 -0.0278196 
0.0164575 0.0900289 -0.0273543 
-0.0273656 0.0360131 -0.0296152 
-0.0251564 0.113713 -0.0163747 
0.00329134 0.119473 -0.0147093 
-0.023274 0.106158 -0.0224283 
0.0207029 0.0950845 -0.0226908 
0.00451899 0.0966593 -0.0283637 
0.00547344 0.0964656 -0.0281399 
0.0260546 0.112325 -0.0110571 
0.00361131 0.0929227 -0.0324448 
0.0110249 0.0988999 -0.0227192 
-0.0148238 0.091051 -0.0367095 
-0.0158845 0.0910066 -0.0366604 
-0.016949 0.0909918 -0.0366612 
0.0161005 0.115637 -0.0146217 
0.0189716 0.115037 -0.0139804 
0.0180337 0.115273 -0.0142355 
0.00492538 0.111581 -0.020193 
0.021637 0.0948486 -0.0224193 
0.0225812 0.0946281 -0.0221802 
0.0235231 0.0943993 -0.0219282 
0.00641604 0.0962346 -0.0278978 
0.0244608 0.0941673 -0.021671 
0.025374 0.0938744 -0.0213667 
0.0262833 0.0935743 -0.0210485 
-0.0127135 0.100022 -0.0239701 
0.0271589 0.093209 -0.0206672 
0.0280428 0.0928381 -0.0202889 
0.0151848 0.115917 -0.0149184 
0.0125549 0.119968 -0.0132874 
0.0172187 0.117738 -0.0128881 
0.0158369 0.105055 -0.0192576 
0.0250684 0.0912521 -0.0226015 
-0.0273763 0.112504 -0.0170987 
0.0285181 0.0968051 -0.0184722 
0.0361358 0.102075 -0.0100705 
0.0288984 0.0924492 -0.0198656 
-0.0008153 0.10869 -0.0211159 
-0.02276 0.093942 -0.0316991 
0.0275305 0.105074 -0.0152759 
0.0284509 0.104793 -0.0149826 
0.0248931 0.108132 -0.0145556 
0.0239203 0.108291 -0.0147313 
-0.0101883 0.0876449 -0.0371912 
-0.00337868 0.117905 -0.0149619 
0.0297749 0.0920783 -0.0194766 
0.0137354 0.10206 -0.0220537 
0.0147972 0.102084 -0.0220848 
-0.0132881 0.113144 -0.01784 
0.00434751 0.121547 -0.0129175 
0.0226361 0.118891 -0.00814073 
-0.00225576 0.119004 -0.0141489 
0.0190773 0.108184 -0.0165978 
0.0139163 0.0953242 -0.0249235 
0.03067 0.0917687 -0.019137 
0.0315757 0.0914687 -0.0188156 
0.032458 0.0910982 -0.0184345 
0.0332508 0.0906175 -0.0178979 
0.00284082 0.0994342 -0.0233056 
0.0340749 0.0901032 -0.0173771 
-0.0225249 0.125571 0.0012278 
-0.0213885 0.125739 0.00103732 
-0.0202523 0.125914 0.000840735 
-0.0190696 0.126125 0.000571573 
-0.0179367 0.12631 0.000372783 
-0.0167051 0.126576 2.44266e-005 
-0.0155312 0.126827 -0.00025822 
-0.0143122 0.127128 -0.000614565 
-0.0131413 0.127389 -0.000900164 
-0.0119496 0.127575 -0.00116297 
-0.0107692 0.1278 -0.0014358 
-0.0095857 0.128017 -0.00170998 
-0.00844614 0.128164 -0.00189615 
-0.00730789 0.12834 -0.00208974 
-0.00617179 0.128513 -0.00228639 
-0.00507021 0.128586 -0.00238902 
-0.00396533 0.128634 -0.00247998 
-0.00290701 0.128667 -0.00250924 
-0.00184307 0.128669 -0.00252946 
-0.000820873 0.128641 -0.00248283 
0.000242427 0.128645 -0.00250259 
0.00130397 0.128647 -0.00252095 
0.00236523 0.128663 -0.00254763 
0.00347146 0.128699 -0.00262952 
0.00453562 0.128718 -0.00265628 
0.00559724 0.128727 -0.00267638 
0.00662363 0.128671 -0.00261559 
0.00764804 0.128583 -0.00254334 
0.00863241 0.128438 -0.00238911 
0.00964716 0.128306 -0.00229994 
0.0106046 0.128135 -0.0020835 
0.0115865 0.127977 -0.0019288 
0.0125362 0.127772 -0.00169738 
0.013481 0.127543 -0.00145794 
0.0144241 0.127312 -0.00121761 
0.0153381 0.127037 -0.000904662 
0.0162787 0.126801 -0.0006607 
0.0171824 0.126495 -0.000336309 
0.0180905 0.1262 -1.26099e-005 
0.0189956 0.125897 0.000310264 
0.0349262 0.0896582 -0.0169179 
0.0357614 0.089262 -0.0164786 
0.036558 0.0887304 -0.0159156 
0.0216927 0.103078 -0.0191449 
-0.0184671 0.10319 -0.0232847 
0.000833787 0.106762 -0.0210825 
0.0173609 0.0897252 -0.0270298 
0.0182378 0.0893522 -0.0266421 
0.0297429 0.112241 -0.00897067 
0.0185485 0.111232 -0.0158588 
0.0373159 0.0880544 -0.0152271 
0.0304209 0.0460912 -0.00653037 
0.0251595 0.0995713 -0.0194056 
0.0285895 0.0979793 -0.017709 
0.0343206 0.094597 -0.0141158 
-0.0186858 0.118957 -0.0119398 
-0.0208502 0.120881 -0.00994613 
-0.0208303 0.119929 -0.0109428 
-0.0180555 0.0909221 -0.0366017 
-0.0250035 0.0896 -0.0352857 
-0.00834994 0.0943471 -0.0340215 
0.0389262 0.103315 -0.00332456 
0.00735928 0.0960033 -0.0276522 
0.0296818 0.0815643 -0.0205093 
0.00465961 0.0959425 -0.0295932 
0.0108274 0.0362708 -0.0225637 
-0.0115711 0.100192 -0.0241483 
0.0436089 0.0680569 -0.000247417 
-0.000110081 0.106984 -0.0213197 
0.0260337 0.0639191 -0.0225668 
0.0343613 0.111866 -0.00251995 
0.0190672 0.117213 -0.0123322 
-0.00991212 0.111561 -0.0201766 
-0.0240588 0.111793 -0.0183639 
-0.0283604 0.112635 -0.0172343 
0.00642086 0.116423 -0.0174422 
0.0317917 0.0949031 -0.0164462 
0.015852 0.106086 -0.0183494 
-0.0221856 0.122325 -0.00745001 
0.0444641 0.0686626 0.00115575 
0.0256926 0.105619 -0.0158649 
0.0247455 0.105845 -0.0161092 
0.0266028 0.105322 -0.0155495 
0.0267717 0.107644 -0.0140409 
0.025846 0.107916 -0.0143268 
0.00569987 0.0949071 -0.0304911 
0.0183426 0.0906063 -0.0259275 
0.023348 0.0930459 -0.0224955 
-0.00223434 0.118045 -0.0151238 
-0.0250193 0.118984 -0.0119284 
-0.0262613 0.119664 -0.0106051 
0.0162217 0.120841 -0.0102336 
0.0391665 0.0916193 -0.0109453 
-0.0213445 0.0916844 -0.035421 
0.0504568 0.0627892 -0.00292241 
0.0111209 0.0908234 -0.0303895 
-0.0179551 0.0921164 -0.0358084 
-0.0104704 0.100279 -0.0242341 
-0.00317446 0.0951663 -0.0328247 
0.0235092 0.118527 -0.00774096 
0.0450165 0.0718833 0.00186291 
-0.0289733 0.124361 0.000543811 
-0.0279025 0.124426 0.000511349 
-0.0268485 0.124528 0.000469072 
0.0456137 0.0708816 0.00289794 
0.0463647 0.0703187 0.00350637 
0.0474231 0.0702463 0.00356979 
-0.0222312 0.125137 -0.000350139 
-0.0210951 0.12531 -0.000542597 
-0.0199595 0.125484 -0.000738697 
-0.0187649 0.125661 -0.000995534 
-0.0176337 0.125847 -0.00119502 
-0.0165061 0.126041 -0.00139683 
-0.0152817 0.126335 -0.00175389 
-0.0140554 0.126614 -0.00210251 
-0.0128819 0.126866 -0.00238505 
-0.0116556 0.127143 -0.00273206 
-0.0104754 0.127368 -0.00300647 
-0.00933623 0.127529 -0.00319765 
-0.00815144 0.127733 -0.00346398 
-0.00705924 0.127865 -0.00358478 
-0.00591514 0.12799 -0.00376372 
-0.00481374 0.128076 -0.00386981 
-0.00375231 0.128091 -0.0038931 
-0.00268972 0.128069 -0.00389854 
-0.00166671 0.12799 -0.00382866 
-0.000643212 0.127926 -0.00376413 
0.000379078 0.127909 -0.00372478 
0.00144018 0.127924 -0.00374837 
0.00254476 0.127971 -0.00383507 
0.00364827 0.128043 -0.00393793 
0.00470729 0.128083 -0.0039713 
0.0057745 0.128094 -0.00399317 
0.00679871 0.128004 -0.00391746 
0.00782186 0.127915 -0.00384433 
0.00880995 0.127795 -0.00370552 
0.00979123 0.127622 -0.00353983 
0.0107457 0.127435 -0.00331768 
0.0117235 0.127254 -0.00315056 
0.0126717 0.127043 -0.00291981 
0.0136156 0.126814 -0.00267762 
0.0145549 0.126574 -0.00243153 
0.0154742 0.126309 -0.00212525 
0.0164098 0.126062 -0.00187701 
0.0173223 0.125777 -0.00156033 
0.0182274 0.125477 -0.00123802 
0.0191385 0.125192 -0.000918824 
0.0200495 0.124902 -0.000599563 
0.0209425 0.124573 -0.000263497 
0.021809 0.1242 0.000142479 
0.0484547 0.0702338 0.00359645 
-0.0274342 0.111364 -0.0178958 
-0.00940844 0.100291 -0.0242411 
0.0222184 0.122028 -0.00352468 
0.00208806 0.113117 -0.0199282 
0.0120479 0.124912 -0.00663019 
0.0191089 0.0889764 -0.0262512 
0.0199779 0.0885978 -0.0258535 
0.0208421 0.0882147 -0.0254487 
0.0559048 0.0631077 0.000905369 
0.0551275 0.0637038 0.000299703 
0.054323 0.064171 -0.000208879 
0.0534729 0.0645627 -0.000631784 
0.0375648 0.0926236 -0.0120119 
0.0044338 0.117686 -0.0167913 
-0.0239399 0.118058 -0.0129545 
0.00834665 0.0958673 -0.0275066 
0.0260213 0.111246 -0.0119 
0.0495547 0.0702574 0.0035522 
0.0392717 0.0938049 -0.00924672 
0.0286979 0.0806527 -0.0216026 
0.00929494 0.0956507 -0.0272714 
0.0337894 0.103744 -0.0118635 
0.0506567 0.0703381 0.00346635 
0.0516782 0.0702939 0.00352664 
0.0526995 0.0702438 0.0035897 
0.0537172 0.0701657 0.00367339 
0.0375184 0.0915609 -0.0128884 
-0.0285693 0.0399846 -0.0296196 
0.026836 0.0634537 -0.0220606 
0.0175747 0.0931801 -0.024649 
-0.0110657 0.112343 -0.0190003 
0.0450408 0.0625178 -0.00265494 
-0.0293428 0.112771 -0.0173776 
-0.0303664 0.112853 -0.0174686 
0.0343018 0.0936044 -0.01506 
0.0329891 0.10525 -0.0114692 
0.0312687 0.106096 -0.0123707 
0.0303748 0.106409 -0.0127112 
0.0294673 0.106706 -0.01303 
0.0285796 0.107031 -0.0133812 
0.0276786 0.107363 -0.0137282 
0.0205346 0.0937418 -0.0232686 
-0.00851004 0.0960786 -0.0317903 
0.0130461 0.106823 -0.0191157 
0.014824 0.0950266 -0.0246047 
-0.00109974 0.118227 -0.0153259 
-0.0239631 0.11903 -0.0119726 
-0.0273659 0.119585 -0.010507 
0.0171004 0.120495 -0.00987579 
0.00293844 0.100629 -0.0225769 
0.0547017 0.0700348 0.00381661 
0.0556724 0.0698728 0.00398853 
-0.00218115 0.0950603 -0.0327048 
-0.0286768 0.123948 -0.00103929 
-0.0275662 0.123979 -0.00112939 
-0.0265008 0.124041 -0.00116405 
-0.0253603 0.124214 -0.00135534 
-0.0242249 0.124407 -0.00155437 
-0.0230963 0.124618 -0.00175855 
-0.0219613 0.124807 -0.00195706 
-0.0208115 0.124915 -0.0021319 
-0.0196629 0.125034 -0.00230889 
-0.0185161 0.125172 -0.00248935 
-0.0173769 0.125333 -0.00267782 
-0.0162407 0.125507 -0.00287714 
-0.0150651 0.12575 -0.00315467 
-0.0138482 0.126055 -0.00351425 
-0.0126798 0.126321 -0.00380105 
-0.0114519 0.126605 -0.00415103 
-0.0102692 0.126825 -0.00441849 
-0.00912603 0.126983 -0.00460672 
-0.00794631 0.127212 -0.00487976 
-0.00680856 0.127356 -0.00506622 
-0.0057025 0.12744 -0.00517306 
-0.00463984 0.12746 -0.00519523 
-0.00357593 0.127459 -0.0052112 
-0.0025157 0.127417 -0.00520554 
-0.00152895 0.1273 -0.00507098 
-0.000544127 0.127196 -0.00494172 
0.00047843 0.12713 -0.00487855 
0.00157852 0.12719 -0.00497022 
0.00268229 0.12726 -0.0050686 
0.00377856 0.127353 -0.00517835 
0.0048864 0.127407 -0.00526463 
0.00602626 0.127371 -0.00517179 
0.00697022 0.12731 -0.00520393 
0.00795806 0.127195 -0.00506697 
0.00897858 0.127106 -0.00499333 
0.00993007 0.126906 -0.00476687 
0.0109104 0.126748 -0.00460652 
0.0118568 0.126524 -0.00436904 
0.0128031 0.126304 -0.00413421 
0.01375 0.126078 -0.00389468 
0.0146587 0.125796 -0.00358107 
0.0155789 0.125536 -0.0032763 
0.0165193 0.125294 -0.00303164 
0.0174244 0.125027 -0.00283112 
0.0183651 0.124757 -0.00246117 
0.0192696 0.124452 -0.00213625 
0.0201621 0.124133 -0.00175315 
0.0210813 0.123852 -0.00148905 
0.0219588 0.123501 -0.00109075 
0.0228232 0.123119 -0.000681491 
0.0565638 0.0695327 0.00435815 
0.01482 0.0920349 -0.0274402 
-0.0162822 0.113495 -0.0182068 
-0.0186783 0.101771 -0.0238107 
0.013766 0.105146 -0.0193832 
0.0178388 0.104825 -0.0190099 
-0.0220481 0.121595 -0.00868192 
0.0216856 0.0878179 -0.0250022 
0.0225502 0.0873848 -0.0245875 
0.0234098 0.0871372 -0.0242525 
0.024363 0.0867852 -0.0239669 
0.0525721 0.0648669 -0.000960413 
0.0516025 0.0650498 -0.00116678 
0.0282004 0.082909 -0.0218038 
-0.0158711 0.0941172 -0.0338261 
-0.0169313 0.0940904 -0.0338108 
0.0245137 0.102392 -0.0184072 
0.0104513 0.122961 -0.0105071 
0.0115755 0.104003 -0.020168 
-0.0173075 0.11558 -0.0164072 
-0.0110827 0.102149 -0.0241692 
-0.00952503 0.0920885 -0.0357277 
0.0555538 0.0665692 0.0013688 
0.0358549 0.0843357 -0.0172902 
0.0102657 0.0954683 -0.0270889 
0.0574071 0.0691343 0.00477569 
0.0112253 0.0952809 -0.0268838 
0.0581533 0.0685799 0.00535861 
-0.00838403 0.100228 -0.0241757 
-0.00023381 0.123831 -0.00932637 
0.00433485 0.120467 -0.0137766 
0.00920248 0.0914355 -0.0308607 
0.0235849 0.102638 -0.0186769 
0.0121697 0.0950562 -0.0266386 
0.005339 0.0971934 -0.026912 
-0.0287174 0.0344722 -0.0298467 
-0.0299338 0.0468967 -0.0261593 
-0.0242006 0.107431 -0.0217757 
0.0196407 0.0940896 -0.0236062 
0.00382851 0.0992997 -0.0231609 
0.0382996 0.103126 -0.00513692 
0.0390337 0.102562 -0.00454148 
0.039746 0.101828 -0.00373788 
-0.029008 0.0478606 -0.0250513 
-0.0160251 0.0375717 -0.0270066 
4.86222e-005 0.11836 -0.0154829 
-0.0228582 0.119091 -0.0120569 
-0.0284244 0.119569 -0.0104891 
0.0179609 0.1201 -0.00942839 
0.0362267 0.104294 -0.00842134 
0.00114443 0.118463 -0.015597 
-0.00732189 0.100225 -0.0241674 
-0.0283817 0.123518 -0.00261643 
-0.027273 0.123571 -0.00271305 
-0.0262078 0.123609 -0.00273748 
