# .PCD v.7 - Point Cloud Data file format
VERSION .7
FIELDS x y z
SIZE 4 4 4
TYPE F F F
COUNT 1 1 1
WIDTH 1520
HEIGHT 1
VIEWPOINT 0 0 0 1 0 0 0
POINTS 1520
DATA ascii
-0.0720698 0.176015 -0.0442709 
-0.0728954 0.176495 -0.0445729 
-0.0736872 0.176894 -0.0449171 
-0.074679 0.177203 -0.0452121 
-0.0757023 0.177226 -0.0456228 
-0.0768893 0.176966 -0.046083 
-0.0661966 0.15171 0.0363078 
-0.0637376 0.15365 0.0326508 
-0.0621042 0.153787 0.0317461 
-0.0813458 0.154098 0.0250842 
-0.0724662 0.156284 0.0178613 
-0.0472567 0.132959 0.0215876 
-0.0927119 0.117479 0.0363033 
-0.0888763 0.0982745 0.00841224 
-0.0923737 0.128196 0.0102559 
-0.0817922 0.143171 0.000171875 
-0.0616525 0.116813 -0.0113459 
-0.0846182 0.106299 0.024344 
-0.0848969 0.106313 0.0233612 
-0.0865489 0.109072 0.0153468 
-0.093041 0.12831 0.0262642 
-0.0908913 0.139194 0.0171389 
-0.0931626 0.117374 0.0143043 
-0.0727258 0.157431 -0.00265266 
-0.0740278 0.157006 -0.00316778 
-0.0314035 0.121359 0.0260922 
-0.0670917 0.155954 0.0255845 
-0.0612038 0.154834 0.027675 
-0.0602698 0.154572 0.0280125 
-0.0681398 0.156014 0.0252192 
-0.0820398 0.150272 0.03397 
-0.0896372 0.0929496 0.0174335 
-0.0750251 0.152273 0.0347437 
-0.0689807 0.155012 0.0293114 
-0.0702091 0.156071 0.0113882 
-0.0924704 0.117461 0.033305 
-0.0924453 0.114684 0.0163206 
-0.0709364 0.151841 0.036169 
-0.0572144 0.154757 0.0232881 
-0.0622625 0.155951 0.0127725 
-0.0620032 0.154899 0.00420466 
-0.0771272 0.155133 0.00894547 
-0.0290767 0.121891 0.0239314 
-0.0525571 0.150877 0.0178 
-0.0862421 0.14327 0.00816028 
-0.091117 0.143373 0.0231646 
-0.0809488 0.144539 -0.000825536 
-0.0737149 0.158251 -0.0299203 
-0.0754296 0.152593 -0.0138871 
-0.0889571 0.0955775 0.00843273 
-0.0890892 0.0955882 0.00942496 
-0.0891519 0.0956005 0.0104313 
-0.0892111 0.0956026 0.0114219 
-0.093596 0.126936 0.0252692 
-0.0912918 0.11477 0.0353243 
-0.0911122 0.11473 0.0343167 
-0.0875561 0.0968363 0.00343541 
-0.0878452 0.096803 0.00445868 
-0.0879813 0.0968653 0.0054141 
-0.0859359 0.0980836 0.000413824 
-0.0782927 0.098997 -0.00960155 
-0.0890673 0.101028 0.0173829 
-0.0889728 0.101008 0.0133925 
-0.0888771 0.100994 0.011394 
-0.0809107 0.103235 -0.00559799 
-0.0818428 0.103274 -0.0045788 
-0.0385101 0.124563 -0.00772445 
-0.0477678 0.125154 -0.0082648 
-0.0831283 0.107448 0.000408412 
-0.0825753 0.107428 -0.000626511 
-0.0821717 0.11152 0.00033013 
-0.0920931 0.126941 0.031257 
-0.0800935 0.138964 -0.00379173 
-0.0686053 0.155434 -0.0518073 
-0.0926576 0.117463 0.0373027 
-0.0719733 0.155857 0.00930845 
-0.0316114 0.123192 0.0229888 
-0.0442513 0.120873 0.0273959 
-0.0447319 0.125394 0.0226968 
-0.0456062 0.127883 0.0223049 
-0.0442317 0.12547 0.021384 
-0.0707351 0.156208 0.0228366 
-0.0690676 0.152436 0.0353067 
-0.0662219 0.155662 0.00991681 
-0.0651233 0.155698 0.0103085 
-0.0683614 0.15578 0.00913576 
-0.0154824 0.185702 -0.0219175 
-0.0159771 0.186924 -0.0221541 
-0.0859011 0.134922 0.00126737 
-0.0893171 0.151601 0.0194969 
-0.0354864 0.12379 0.0245568 
-0.0847135 0.152577 0.00925173 
-0.0634115 0.166723 -0.0396505 
-0.0639453 0.167747 -0.0398404 
-0.0645483 0.168715 -0.0400434 
-0.0651763 0.16954 -0.0402745 
-0.0658394 0.170333 -0.0405107 
-0.0665181 0.171112 -0.0407548 
-0.0672076 0.171872 -0.0410051 
-0.067993 0.172429 -0.0412978 
-0.0687437 0.173038 -0.0415702 
-0.0695038 0.173637 -0.0418473 
-0.0702811 0.17421 -0.0421289 
-0.0710541 0.174778 -0.0424234 
-0.0718647 0.175275 -0.0427173 
-0.0726957 0.175719 -0.0430358 
-0.0735436 0.175947 -0.0433626 
-0.0744971 0.176396 -0.0436946 
-0.0756137 0.176488 -0.0441876 
-0.0767078 0.176155 -0.0445645 
-0.077704 0.175863 -0.0450747 
-0.0762839 0.155844 0.0209052 
-0.0670539 0.154574 0.0299913 
-0.0734894 0.156164 0.020416 
-0.0745879 0.156108 0.0200327 
-0.0780015 0.155773 0.018849 
-0.0851868 0.0966727 -0.00156833 
-0.0856518 0.096702 -0.000561949 
-0.088653 0.0982606 0.00741366 
-0.0885378 0.137788 0.0102157 
-0.0770983 0.150031 -0.00589737 
-0.0902136 0.13513 0.0232187 
-0.0299989 0.178534 -0.0140055 
-0.0851762 0.106326 0.0223754 
-0.0866227 0.109058 0.0173532 
-0.0914252 0.114627 0.0103302 
-0.0719895 0.163815 -0.0429694 
-0.0911855 0.114622 0.00933636 
-0.0482461 0.131793 0.0256765 
-0.0786725 0.15564 0.0171569 
-0.0734724 0.155984 0.0233451 
-0.062196 0.154993 0.0273195 
-0.0461819 0.130936 0.0220239 
-0.0770801 0.15139 0.0355785 
-0.064488 0.156133 0.0221359 
-0.0538607 0.152062 0.0231076 
-0.0691125 0.156051 0.011784 
-0.0766305 0.155099 0.0076657 
-0.078386 0.154762 0.00850622 
-0.0710465 0.156278 0.000878407 
-0.0781607 0.0935055 -0.0115755 
-0.0772165 0.0934484 -0.0125951 
-0.073438 0.145781 -0.0138542 
-0.091649 0.146116 0.0221478 
-0.09096 0.148814 0.0141536 
-0.0743025 0.151276 -0.0308835 
-0.0893667 0.135016 0.00621309 
-0.0890002 0.134996 0.00522535 
-0.0715687 0.153984 -0.0439053 
-0.0941104 0.126894 0.0182531 
-0.0772795 0.155549 -0.0169029 
-0.0924522 0.125595 0.0392516 
-0.0762012 0.149986 -0.0138757 
-0.0905185 0.148805 0.0131551 
-0.0883434 0.0968836 0.00640652 
-0.086306 0.0981081 0.00140707 
-0.0773163 0.098935 -0.0105842 
-0.0791658 0.0990564 -0.00863296 
-0.0801842 0.0990978 -0.00757647 
-0.0888256 0.100978 0.0104077 
-0.0889531 0.100999 0.0124002 
-0.0805618 0.101855 -0.00659893 
-0.079699 0.101798 -0.00757602 
-0.0488684 0.125064 -0.00815774 
-0.0785113 0.10447 -0.00758869 
-0.0861826 0.104908 0.00538017 
-0.0798316 0.111318 -0.00180655 
-0.0746935 0.111142 -0.00760178 
-0.0618301 0.0924936 -0.0189652 
-0.0931712 0.117411 0.0223074 
-0.0708769 0.155921 0.00969704 
-0.076573 0.153595 0.0311713 
-0.0769778 0.155918 0.0162848 
-0.0504069 0.135839 0.0247969 
-0.0441024 0.124581 0.0229348 
-0.0299566 0.122268 0.0236125 
-0.0451337 0.127804 0.0210049 
-0.0618314 0.155872 0.0114752 
-0.0640267 0.155773 0.0106957 
-0.0807714 0.153393 0.00628177 
-0.0793953 0.154018 0.0066962 
-0.0160151 0.185636 -0.0207096 
-0.0163792 0.186908 -0.0208435 
-0.017221 0.187225 -0.0211553 
-0.0892823 0.141954 0.0132429 
-0.0293794 0.119962 0.0282913 
-0.0640268 0.154208 0.0310565 
-0.0434655 0.127159 0.0186744 
-0.063712 0.167032 -0.0383216 
-0.0642974 0.167953 -0.0385345 
-0.0649318 0.168832 -0.0387572 
-0.0655972 0.169628 -0.0389928 
-0.0662716 0.170413 -0.0392349 
-0.0669901 0.171097 -0.0394962 
-0.0677151 0.171772 -0.0397619 
-0.0684896 0.172346 -0.0400602 
-0.0692316 0.172989 -0.0403442 
-0.070025 0.173518 -0.0406121 
-0.0708508 0.173984 -0.0409178 
-0.071633 0.174549 -0.0412084 
-0.0724955 0.174948 -0.0415233 
-0.073438 0.175304 -0.0418354 
-0.0742949 0.17555 -0.0422185 
-0.0752747 0.175704 -0.0425921 
-0.0764469 0.175411 -0.0430646 
-0.0776263 0.175005 -0.043567 
-0.074262 0.155148 0.0274653 
-0.071237 0.156366 0.0212013 
-0.0301947 0.125922 0.0102205 
-0.0311244 0.126183 0.00987945 
-0.0860277 0.0967286 0.000430639 
-0.0883068 0.098239 0.00641854 
-0.092972 0.125468 0.0112596 
-0.090971 0.141997 0.0221703 
-0.0849952 0.141833 0.00418636 
-0.0759663 0.179251 -0.0520449 
-0.085611 0.106332 0.02136 
-0.0865394 0.109089 0.0183378 
-0.0538048 0.159768 -0.00183632 
-0.0614351 0.156032 0.020314 
-0.0320503 0.12646 0.00953655 
-0.0842181 0.153993 0.0196689 
-0.0792564 0.155246 0.0213567 
-0.0452904 0.125307 0.0239255 
-0.0584012 0.154047 0.0286827 
-0.0488788 0.134867 0.0224297 
-0.0740662 0.155757 0.0246008 
-0.0329323 0.126815 0.00921204 
-0.0467117 0.131872 0.0218067 
-0.0680156 0.156066 0.0121787 
-0.0728072 0.15012 0.0385587 
-0.0706375 0.156126 0.0126907 
-0.0338201 0.127158 0.00888963 
-0.0683525 0.155277 0.00186884 
-0.0428508 0.127424 0.0174253 
-0.0419902 0.127061 0.0177443 
-0.0761849 0.0933719 -0.0135017 
-0.0568073 0.122 -0.00880521 
-0.0761998 0.14998 -0.0148766 
-0.0893959 0.0942918 0.0174254 
-0.0894235 0.0942851 0.0164251 
-0.0895241 0.094286 0.0154262 
-0.0895098 0.0942825 0.014433 
-0.0865451 0.110395 0.00835385 
-0.0757755 0.0948358 -0.0134771 
-0.0765794 0.15423 -0.00189723 
-0.0889751 0.0969295 0.00842099 
-0.0867747 0.0981404 0.0024092 
-0.0844928 0.0979861 -0.00258986 
-0.0839499 0.0979633 -0.0036111 
-0.0813824 0.099165 -0.00657823 
-0.0824727 0.0992304 -0.00559052 
-0.0264473 0.181471 -0.0150302 
-0.0892091 0.137796 0.0122163 
-0.0787438 0.101744 -0.00857364 
-0.0941682 0.126929 0.0222624 
-0.0791962 0.16801 -0.0379842 
-0.0864925 0.10492 0.00639597 
-0.0866603 0.10494 0.00737931 
-0.0869937 0.104951 0.00838372 
-0.0758029 0.111217 -0.00664466 
-0.0628273 0.0924874 -0.0189476 
-0.0933085 0.117399 0.0213072 
-0.0347476 0.127441 0.00854521 
-0.0457101 0.131722 0.0089192 
-0.0497977 0.134944 0.0250398 
-0.0492123 0.134029 0.0252722 
-0.0451868 0.126658 0.0224837 
-0.0735593 0.15583 0.0102013 
-0.0696323 0.156261 0.0232204 
-0.0607897 0.155834 0.0118473 
-0.0560741 0.15232 0.0295584 
-0.0829803 0.153189 0.00837374 
-0.0621334 0.15599 0.0157191 
-0.0404347 0.128451 0.0123721 
-0.0618449 0.152018 0.0348716 
-0.0356852 0.127701 0.00820492 
-0.0169683 0.186741 -0.0196674 
-0.0888224 0.0929368 0.0224135 
-0.0366248 0.127943 0.00786237 
-0.0375614 0.128197 0.00751871 
-0.0780713 0.150403 0.0367551 
-0.054091 0.152763 0.0215579 
-0.038546 0.128369 0.00715642 
-0.0640415 0.167322 -0.0369994 
-0.0646509 0.168222 -0.0372156 
-0.0653015 0.169027 -0.0374543 
-0.0659809 0.169803 -0.037696 
-0.066705 0.170483 -0.0379595 
-0.0674348 0.171149 -0.0382253 
-0.0682097 0.171724 -0.0385204 
-0.0689777 0.172299 -0.0388012 
-0.0697889 0.172796 -0.0390999 
-0.0706155 0.173275 -0.0394062 
-0.0714268 0.173765 -0.0397048 
-0.0722468 0.174258 -0.0400013 
-0.0731244 0.174613 -0.0403365 
-0.0741081 0.174769 -0.0407073 
-0.0750852 0.174913 -0.0410877 
-0.0763281 0.174543 -0.0415648 
-0.0773785 0.174262 -0.0420678 
-0.0395331 0.128532 0.0067941 
-0.0601798 0.155861 0.0135147 
-0.0405229 0.128682 0.00643622 
-0.0680504 0.156343 0.0223236 
-0.0378902 0.121927 0.0281694 
-0.0680579 0.149988 0.0386907 
-0.0416003 0.12872 0.00602836 
-0.0865012 0.0967606 0.00143514 
-0.087994 0.0981671 0.00544953 
-0.0717164 0.163822 -0.0439567 
-0.0781422 0.141688 -0.0047364 
-0.0270715 0.179993 -0.0160072 
-0.0862825 0.106347 0.0193454 
-0.0425281 0.128954 0.00568377 
-0.0434823 0.12913 0.00531313 
-0.0662581 0.15274 0.0347724 
-0.0471876 0.131943 0.0231102 
-0.0567623 0.154944 0.0190948 
-0.0443833 0.12939 0.00495951 
-0.0452915 0.1298 0.0046882 
-0.0748503 0.150353 0.0378605 
-0.0669712 0.156006 0.0125516 
-0.0631289 0.155254 0.0269868 
-0.0537253 0.151161 0.0246275 
-0.0695415 0.15615 0.0130838 
-0.045982 0.130505 0.00444274 
-0.04802 0.136068 0.0153684 
-0.0446861 0.130064 0.0166863 
-0.0441239 0.129077 0.0169132 
-0.0435257 0.128183 0.0171556 
-0.081815 0.108922 0.02836 
-0.0893948 0.09291 0.012442 
-0.0346758 0.127158 0.0144691 
-0.0595569 0.153648 0.0312116 
-0.0847199 0.0939171 -0.00356265 
-0.0892956 0.0942653 0.013432 
-0.0888371 0.0942243 0.00943852 
-0.088725 0.0942104 0.00844208 
-0.0770466 0.0947961 -0.0125384 
-0.0547576 0.161266 0.00105716 
-0.0887521 0.0969152 0.00742291 
-0.0892038 0.0969467 0.00941895 
-0.0893298 0.0969555 0.0104169 
-0.0925344 0.124191 0.0302708 
-0.0932444 0.124186 0.027283 
-0.083332 0.0992842 -0.00460735 
-0.0842752 0.141807 0.00320102 
-0.0896062 0.137812 0.0131974 
-0.0900489 0.137821 0.0141988 
-0.0902839 0.137831 0.0151959 
-0.0938789 0.125503 0.0152603 
-0.0900893 0.135135 0.0242145 
-0.0858238 0.104979 0.0223569 
-0.0800669 0.107282 -0.00460113 
-0.0388328 0.0943088 -0.0230504 
-0.0914405 0.117414 0.0273008 
-0.0913339 0.117411 0.0283055 
-0.0729322 0.156105 0.0220745 
-0.0324184 0.123701 0.0227019 
-0.0872732 0.151714 0.0113029 
-0.0510269 0.136724 0.0245519 
-0.0423586 0.123855 0.0235885 
-0.0433492 0.123979 0.0232099 
-0.0544133 0.159808 0.00694146 
-0.0717396 0.156144 0.0122972 
-0.0629292 0.155832 0.0110869 
-0.085741 0.151793 0.0266482 
-0.0843142 0.152356 0.00793113 
-0.0684446 0.156174 0.0134711 
-0.0644558 0.155894 0.01199 
-0.0457478 0.130844 0.0207105 
-0.0649985 0.156251 0.0205012 
-0.0759088 0.150426 0.0375079 
-0.0345319 0.122423 0.0264163 
-0.0547132 0.153591 0.0213081 
-0.0638002 0.166551 -0.0354938 
-0.0644057 0.16752 -0.0356951 
-0.0650469 0.168333 -0.0359323 
-0.0656974 0.169193 -0.0361564 
-0.0664072 0.169883 -0.0364165 
-0.0671575 0.17049 -0.0366968 
-0.0679053 0.171131 -0.036968 
-0.0687158 0.171626 -0.0372714 
-0.069532 0.172114 -0.0375728 
-0.070349 0.172644 -0.037875 
-0.0711885 0.173044 -0.0381946 
-0.0720651 0.173384 -0.0385311 
-0.072956 0.173805 -0.0388399 
-0.0738593 0.174047 -0.0391959 
-0.0748301 0.174171 -0.0395847 
-0.0760781 0.173825 -0.0400503 
-0.0772285 0.173502 -0.0405421 
-0.0767842 0.155599 0.0119802 
-0.0814342 0.154656 0.0132857 
-0.0670064 0.156281 0.0226936 
-0.0399374 0.122179 0.0274746 
-0.0619687 0.155933 0.0215789 
-0.0672538 0.152901 0.0344187 
-0.0876687 0.0981895 0.00443327 
-0.0944953 0.125552 0.0212653 
-0.0908622 0.135106 0.0192089 
-0.0386541 0.126132 0.0204051 
-0.0301237 0.12585 0.013192 
-0.0310488 0.126128 0.0128475 
-0.0659293 0.156005 0.0129201 
-0.0321019 0.119786 0.0288381 
-0.0524014 0.152599 0.0134601 
-0.0292509 0.122699 0.0223824 
-0.0300755 0.123175 0.0220771 
-0.0308933 0.12367 0.0217821 
-0.0460219 0.166062 0.00401182 
-0.0823623 0.154598 0.0188308 
-0.0471696 0.16597 0.00363215 
-0.0362833 0.17342 -0.00108904 
-0.0851109 0.0939488 -0.00257672 
-0.0855876 0.0939777 -0.00157288 
-0.0857862 0.0939971 -0.00056361 
-0.0888687 0.0942285 0.0104297 
-0.0788763 0.0949177 -0.010577 
-0.091546 0.146121 0.023146 
-0.0731992 0.145774 -0.0148545 
-0.0894422 0.0969694 0.0114146 
-0.0896201 0.0969823 0.0124196 
-0.0941673 0.124186 0.0242853 
-0.0929791 0.124188 0.0282747 
-0.0794636 0.141716 -0.00376694 
-0.0908687 0.135097 0.0172074 
-0.0881381 0.0996585 0.0223676 
-0.0713317 0.151217 -0.0439201 
-0.0713206 0.156784 -0.042915 
-0.085549 0.104961 0.0233427 
-0.077037 0.111295 -0.0046823 
-0.09118 0.143373 0.022161 
-0.0913152 0.114759 0.0363194 
-0.0921325 0.117269 0.0252198 
-0.0926082 0.117405 0.0243082 
-0.0596936 0.155857 0.0122367 
-0.0738542 0.15551 0.00718209 
-0.0661823 0.154393 0.00121795 
-0.0356104 0.127425 0.0141251 
-0.0588103 0.157344 0.00530008 
-0.0651287 0.156206 0.0175513 
-0.0379003 0.123041 0.0266516 
-0.0866438 0.152376 0.0233632 
-0.0729629 0.155811 0.0249814 
-0.0699807 0.149351 0.039589 
-0.0590542 0.155341 0.0226214 
-0.0558399 0.0666 0.0358943 
-0.0884108 0.0928321 0.00744302 
-0.0215138 0.185205 -0.0184453 
-0.0890662 0.123985 0.0032876 
-0.0600611 0.155861 0.0164593 
-0.0554731 0.154191 0.0210182 
-0.0781956 0.163891 -0.0259488 
-0.0923861 0.125586 0.0352607 
-0.0641565 0.166823 -0.0341745 
-0.0647866 0.167644 -0.0344082 
-0.065431 0.168513 -0.0346313 
-0.0661031 0.169296 -0.0348743 
-0.0668287 0.169972 -0.0351376 
-0.0675927 0.17056 -0.0354212 
-0.068398 0.171087 -0.0357069 
-0.0691914 0.171601 -0.0360136 
-0.0700192 0.172057 -0.036324 
-0.0708823 0.172457 -0.0366471 
-0.0717609 0.172825 -0.0369735 
-0.072708 0.173064 -0.0373345 
-0.073631 0.173473 -0.03767 
-0.0745832 0.173457 -0.038075 
-0.0758319 0.173116 -0.0385323 
-0.0638047 0.152122 -0.00224548 
-0.0644858 0.152894 -0.00250698 
-0.0775236 0.155819 0.0175602 
-0.0789069 0.155396 0.0141592 
-0.0660163 0.156182 0.0230465 
-0.0421185 0.122004 0.0266511 
-0.0821317 0.151156 0.0323844 
-0.0651889 0.153592 -0.00278678 
-0.0877192 0.101 0.0223776 
-0.0881296 0.100997 0.0213597 
-0.0885895 0.126718 0.00227148 
-0.06586 0.154377 -0.00304604 
-0.0690967 0.148938 0.0398784 
-0.0303567 0.119073 0.029499 
-0.0312846 0.119331 0.0291556 
-0.0558806 0.154815 0.016521 
-0.0568165 0.155074 0.0161832 
-0.0577063 0.155408 0.0158579 
-0.058643 0.155634 0.0155202 
-0.0648306 0.156078 0.013307 
-0.0287913 0.121291 0.025511 
-0.0329258 0.120263 0.0285346 
-0.0530069 0.153493 0.0132253 
-0.0586226 0.156199 0.00971481 
-0.0574718 0.156359 0.0101234 
-0.056364 0.156406 0.0105108 
-0.0544491 0.156028 0.0112408 
-0.0535748 0.155622 0.0115317 
-0.0553853 0.15628 0.0108911 
-0.0870329 0.152942 0.0187545 
-0.0665414 0.155108 -0.00331096 
-0.0842794 0.115636 -0.000747849 
-0.0859939 0.0940196 0.000445293 
-0.0889746 0.0942393 0.0114303 
-0.0781065 0.0948585 -0.0115273 
-0.079893 0.0949635 -0.0095262 
-0.0807586 0.0950245 -0.00854945 
-0.08951 0.140665 0.0311774 
-0.0897915 0.135018 0.00821888 
-0.0896385 0.0969877 0.0134181 
-0.0894927 0.14204 0.0311659 
-0.0927326 0.12419 0.0292678 
-0.0921132 0.115989 0.0103178 
-0.0913388 0.115949 0.00831473 
-0.0884258 0.0996766 0.0213895 
-0.0890962 0.0996533 0.0114017 
-0.0890383 0.09964 0.0104144 
-0.0804527 0.143139 -0.00181198 
-0.0851998 0.104954 0.024348 
-0.0763933 0.111249 -0.00565203 
-0.0780101 0.11134 -0.00369811 
-0.0876555 0.144675 0.00917716 
-0.0691184 0.165207 -0.0519806 
-0.0934884 0.117419 0.0203018 
-0.0587089 0.155741 0.0125904 
-0.0671961 0.15591 -0.00355939 
-0.0545541 0.160714 0.00540511 
-0.0314643 0.126198 0.0141678 
-0.0531754 0.160014 0.00733632 
-0.0508814 0.161419 0.0066624 
-0.0346038 0.123422 0.0248791 
-0.0312974 0.120401 0.0276066 
-0.0679476 0.156599 -0.00385029 
-0.0698349 0.155896 0.010068 
-0.0686037 0.157344 -0.00409918 
-0.0838788 0.153353 0.0242347 
-0.0515277 0.136697 0.0258426 
-0.0693964 0.157876 -0.00437702 
-0.0195891 0.186548 -0.0163318 
-0.0203431 0.186558 -0.0166005 
-0.022279 0.185099 -0.0171819 
-0.0567073 0.152073 0.0307854 
-0.0702694 0.156361 0.0186365 
-0.0563002 0.154681 0.0207165 
-0.0701845 0.158483 -0.00465374 
-0.0633619 0.165109 -0.0324564 
-0.0639501 0.166025 -0.0326719 
-0.06455 0.166996 -0.0328772 
-0.0651676 0.167884 -0.0330971 
-0.0658513 0.168603 -0.0333515 
-0.0665486 0.169315 -0.0336077 
-0.0672777 0.169987 -0.0338702 
-0.0680553 0.17056 -0.0341587 
-0.0688509 0.171089 -0.0344529 
-0.0696712 0.171569 -0.0347594 
-0.070543 0.17193 -0.0350862 
-0.0714609 0.172223 -0.0354286 
-0.0723893 0.172498 -0.0357772 
-0.0733228 0.17276 -0.036126 
-0.0743656 0.172848 -0.0365047 
-0.0756171 0.172473 -0.0369846 
-0.0710496 0.158811 -0.00499394 
-0.031974 0.126184 0.0154629 
-0.0562907 0.154938 0.0178178 
-0.0764922 0.155931 0.0149956 
-0.06497 0.156112 0.0234152 
-0.0721129 0.15894 -0.00533295 
-0.0670825 0.156321 0.0197603 
-0.0733382 0.158682 -0.00576511 
-0.0746759 0.158036 -0.00628607 
-0.0293809 0.118905 0.0298455 
-0.0405119 0.125571 0.0212459 
-0.0394107 0.125604 0.021627 
-0.0347822 0.124221 0.0233214 
-0.0322922 0.122832 0.0242564 
-0.0314769 0.122323 0.024544 
-0.0305995 0.121953 0.0248664 
-0.029726 0.121561 0.0251755 
-0.0353528 0.121762 0.0276148 
-0.0536545 0.154299 0.0129697 
-0.0597327 0.156046 0.0093301 
-0.0443682 0.129764 0.015339 
-0.0449132 0.130768 0.0151196 
-0.0547922 0.153188 0.0241866 
-0.0319273 0.126498 0.0125244 
-0.0862312 0.0940245 0.00140199 
-0.0891671 0.0942549 0.0124334 
-0.0884983 0.0941957 0.00744581 
-0.0880011 0.0941555 0.00641769 
-0.0815808 0.0950721 -0.00753639 
-0.0822784 0.0951136 -0.0065238 
-0.0887346 0.0956375 0.0224045 
-0.0408808 0.115001 -0.0156637 
-0.0908254 0.142021 0.0251655 
-0.0826224 0.141799 0.00118353 
-0.0784181 0.163881 -0.0269512 
-0.0860481 0.114371 0.00228673 
-0.088271 0.126713 0.00126975 
-0.0891975 0.0996627 0.0124046 
-0.0769111 0.100434 -0.0105662 
-0.0728877 0.143976 -0.0119757 
-0.0874489 0.105009 0.0173545 
-0.0876028 0.105024 0.0163629 
-0.0788672 0.111379 -0.00271807 
-0.0366237 0.123115 -0.00817194 
-0.0752855 0.176467 -0.0519633 
-0.0933646 0.117392 0.0153085 
-0.0917148 0.117385 0.0263102 
-0.0681277 0.152206 0.0356633 
-0.0395016 0.128216 0.0127148 
-0.0306093 0.125854 0.0144859 
-0.0296756 0.125596 0.0148252 
-0.0465353 0.133196 0.0100953 
-0.0528865 0.15117 0.0191272 
-0.0610791 0.151413 0.0351388 
-0.071543 0.155755 0.00800576 
-0.041821 0.0914074 -0.0230213 
-0.0653187 0.152492 0.0351215 
-0.0824094 0.151775 0.0307901 
-0.0480086 0.134685 0.0198054 
-0.0629926 0.156114 0.0183129 
-0.0201986 0.186115 -0.0151371 
-0.0212084 0.186026 -0.0155815 
-0.0226586 0.185005 -0.0161016 
-0.0563569 0.155043 0.0148967 
-0.057302 0.152908 0.030569 
-0.0666126 0.148623 0.0392621 
-0.0552085 0.151192 0.0284379 
-0.0637125 0.165316 -0.0311513 
-0.0643222 0.166215 -0.0313693 
-0.0649388 0.16711 -0.0315896 
-0.0655814 0.167928 -0.031824 
-0.0662787 0.168684 -0.0320741 
-0.0669945 0.169371 -0.0323347 
-0.0677578 0.16996 -0.0326164 
-0.0685451 0.170527 -0.0328985 
-0.0693669 0.17099 -0.0332104 
-0.0701909 0.171451 -0.0335218 
-0.071113 0.171733 -0.033865 
-0.0720408 0.171996 -0.0342175 
-0.0730299 0.172199 -0.0345665 
-0.0740734 0.172255 -0.0349568 
-0.0752743 0.171989 -0.0354168 
-0.0764914 0.171559 -0.0359139 
-0.0729862 0.15207 0.0354642 
-0.0328507 0.126562 0.0151396 
-0.0750027 0.155319 0.00677634 
-0.0328107 0.126843 0.0122027 
-0.0741825 0.156237 0.0158024 
-0.0601235 0.15512 0.0251504 
-0.057663 0.155278 0.0187721 
-0.040335 0.124745 0.0227896 
-0.0343047 0.125361 0.0205265 
-0.0744234 0.156022 0.0128056 
-0.0426342 0.12559 0.0204963 
-0.0416036 0.125525 0.0208631 
-0.0407505 0.126266 0.0196745 
-0.0487311 0.13178 0.0269763 
-0.0827498 0.154172 0.0128373 
-0.0447621 0.126552 0.0211574 
-0.0777335 0.153443 0.0307864 
-0.0396931 0.126183 0.0200311 
-0.0399361 0.123254 0.0259269 
-0.0543527 0.155034 0.0127444 
-0.0696447 0.155522 0.00577511 
-0.0437463 0.128889 0.0155826 
-0.0745678 0.155931 0.022959 
-0.060661 0.155018 0.0264156 
-0.0460193 0.128067 0.0236255 
-0.0477867 0.135371 0.0169352 
-0.0536498 0.152894 0.0173581 
-0.0873547 0.094105 0.00537923 
-0.087209 0.0941073 0.00444199 
-0.0912331 0.114706 0.0382141 
-0.0721007 0.175064 -0.0530188 
-0.0912374 0.140583 0.0161703 
-0.0893696 0.140675 0.0341739 
-0.0722528 0.156819 -0.0369077 
-0.0742948 0.147166 -0.0148659 
-0.0915139 0.140599 0.0171878 
-0.0884357 0.140552 0.0112052 
-0.0942744 0.126919 0.0202522 
-0.089435 0.0996945 0.016394 
-0.0780733 0.100357 -0.00962255 
-0.0741071 0.154101 -0.0239055 
-0.0809353 0.145916 -0.000819165 
-0.08784 0.105023 0.0143674 
-0.0878453 0.10502 0.0133698 
-0.0872189 0.103599 0.00739967 
-0.0314483 0.177007 -0.0139273 
-0.0926722 0.117507 0.0393006 
-0.0704499 0.154022 0.0317661 
-0.0530502 0.151987 0.0175947 
-0.0331127 0.123309 0.0239558 
-0.0323169 0.126646 0.013854 
-0.04591 0.132311 0.0103278 
-0.0799451 0.15529 0.0167266 
-0.0886232 0.152074 0.0182297 
-0.0610919 0.155915 0.0160896 
-0.0741431 0.153026 0.0335308 
-0.0625615 0.156051 0.017016 
-0.045336 0.129618 0.020889 
-0.0474148 0.133778 0.0200381 
-0.0208999 0.185581 -0.0139755 
-0.021995 0.185609 -0.0143485 
-0.0234016 0.184697 -0.0149423 
-0.0580426 0.153536 0.0303048 
-0.0349607 0.125018 0.0217662 
-0.0572069 0.155002 0.0203881 
-0.0361331 0.122312 0.027301 
-0.0640888 0.165507 -0.029848 
-0.0646908 0.166411 -0.0300665 
-0.0653365 0.167223 -0.0303028 
-0.0660205 0.167997 -0.0305503 
-0.0667396 0.168684 -0.03081 
-0.0674741 0.169344 -0.0310786 
-0.0682563 0.169911 -0.0313673 
-0.0690262 0.170476 -0.0316587 
-0.0698895 0.170875 -0.0319754 
-0.0707666 0.171245 -0.0323024 
-0.071689 0.171513 -0.0326505 
-0.0726695 0.171671 -0.0330178 
-0.073715 0.17176 -0.0333959 
-0.0748644 0.171601 -0.033829 
-0.0760947 0.171183 -0.0343205 
-0.0632135 0.155458 0.00808821 
-0.0472373 0.134368 0.0171539 
-0.073138 0.156184 0.0161734 
-0.0582075 0.154657 0.0258383 
-0.0472066 0.134653 0.0142236 
-0.0424671 0.124776 0.022048 
-0.0832568 0.154212 0.0141255 
-0.0337468 0.127104 0.0118588 
-0.0585706 0.155353 0.0213449 
-0.0346775 0.127387 0.0115177 
-0.065794 0.155512 0.00862557 
-0.064746 0.155508 0.00899366 
-0.0581695 0.15592 0.011334 
-0.0571277 0.155869 0.0117051 
-0.0592055 0.155872 0.0109493 
-0.0560848 0.155673 0.012015 
-0.0552142 0.155428 0.0123927 
-0.0706835 0.155594 0.0053992 
-0.0430221 0.128224 0.015861 
-0.0702279 0.156078 0.0244771 
-0.062838 0.15526 0.00677387 
-0.0639905 0.155091 0.00636862 
-0.0406463 0.127804 0.0152535 
-0.0397156 0.127552 0.0155957 
-0.0415794 0.128056 0.0149128 
-0.0424853 0.128365 0.0145816 
-0.0733029 0.15632 0.000130521 
-0.0658954 0.166616 -0.0590008 
-0.0885678 0.139164 0.0111992 
-0.0818959 0.141783 0.000186922 
-0.0917891 0.141969 0.0171701 
-0.089717 0.142036 0.0301646 
-0.0903646 0.135051 0.0122148 
-0.0805557 0.0977534 -0.00758611 
-0.089402 0.0996815 0.0144017 
-0.0790004 0.100402 -0.00859092 
-0.0799546 0.100457 -0.00758867 
-0.0906275 0.137865 0.0211926 
-0.0858362 0.103636 0.0243714 
-0.0877186 0.105023 0.0153645 
-0.0875094 0.103632 0.00838188 
-0.0883137 0.103697 0.0153744 
-0.092697 0.117351 0.0113077 
-0.0925871 0.117342 0.0103086 
-0.0678931 0.0900993 0.043242 
-0.0855527 0.153551 0.0192298 
-0.0568081 0.154369 0.0248865 
-0.0443004 0.130334 0.00946299 
-0.0379773 0.128134 0.0117903 
-0.0337351 0.126905 0.0148106 
-0.0778434 0.153328 0.00140062 
-0.0655551 0.156269 0.0188465 
-0.0743637 0.153685 0.0319267 
-0.0339393 0.126307 0.017694 
-0.0356146 0.127659 0.0111781 
-0.0615214 0.155998 0.0173864 
-0.0863368 0.153207 0.0174967 
-0.0330041 0.122377 0.0254817 
-0.0312857 0.125233 0.0186818 
-0.0445794 0.130477 0.0137726 
-0.022585 0.185119 -0.0131839 
-0.0243398 0.183957 -0.0138554 
-0.0589919 0.15382 0.0299308 
-0.0422429 0.129048 0.0117038 
-0.0751026 0.155922 -0.00200459 
-0.0365494 0.127902 0.0108341 
-0.0638477 0.164736 -0.0283363 
-0.0644726 0.165628 -0.0285568 
-0.06512 0.166493 -0.0287867 
-0.0657843 0.167288 -0.0290298 
-0.0664918 0.167987 -0.0292876 
-0.0672139 0.168667 -0.0295504 
-0.067959 0.169303 -0.0298283 
-0.0687786 0.16979 -0.0301319 
-0.0695516 0.170347 -0.0304219 
-0.0704174 0.170744 -0.0307374 
-0.0713401 0.171022 -0.0310853 
-0.0723219 0.171178 -0.0314543 
-0.0733702 0.171289 -0.0318245 
-0.0745177 0.171112 -0.0322615 
-0.075709 0.170829 -0.032719 
-0.0770198 0.170132 -0.03325 
-0.0375363 0.128085 0.0104763 
-0.0384762 0.128323 0.0101316 
-0.0466776 0.13337 0.0173732 
-0.0719809 0.156292 0.0165776 
-0.0573264 0.15429 0.0261567 
-0.0394154 0.128541 0.00978788 
-0.0709721 0.148372 0.0407622 
-0.0722094 0.155629 0.00630789 
-0.0711154 0.155676 0.00670049 
-0.0717279 0.155642 0.00502354 
-0.0422272 0.127744 0.0161624 
-0.0576415 0.155076 0.0216791 
-0.0616261 0.155549 0.00719382 
-0.0330104 0.126012 0.0180287 
-0.0321664 0.125608 0.018357 
-0.0911953 0.143381 0.0241598 
-0.0866345 0.094046 0.00237751 
-0.0765518 0.15421 -0.000899711 
-0.0843726 0.0952582 -0.00357113 
-0.0837476 0.0952109 -0.00455405 
-0.0840799 0.143223 0.00416483 
-0.0886136 0.0969805 0.0223931 
-0.0814376 0.0978185 -0.00662583 
-0.0892922 0.0996701 0.0134013 
-0.0894247 0.0996886 0.0153976 
-0.0889169 0.126733 0.0032966 
-0.0810222 0.100509 -0.00657927 
-0.0866185 0.103641 0.022352 
-0.0847322 0.10481 0.00139005 
-0.0842709 0.104792 0.000381661 
-0.0882804 0.103688 0.0163664 
-0.0693598 0.153979 -0.049866 
-0.0779359 0.154614 0.00720975 
-0.0463338 0.132474 0.00863126 
-0.0360974 0.127648 0.0124754 
-0.0769031 0.149462 0.0386995 
-0.0758819 0.156006 0.016671 
-0.0676976 0.156296 0.0180917 
-0.078629 0.155228 0.0230232 
-0.0857072 0.152777 0.0118249 
-0.0234596 0.184384 -0.0119315 
-0.0249388 0.183594 -0.0126758 
-0.0268796 0.181867 -0.0133655 
-0.065258 0.156162 0.0146042 
-0.0598711 0.154188 0.0296083 
-0.0645149 0.156191 0.0192193 
-0.0687032 0.155739 0.000270534 
-0.0636848 0.163906 -0.0268361 
-0.0642806 0.164881 -0.0270495 
-0.0649084 0.165706 -0.0272764 
-0.0655518 0.166572 -0.0275081 
-0.0662458 0.167287 -0.027765 
-0.0669695 0.167967 -0.0280306 
-0.0677123 0.168615 -0.0283035 
-0.0684803 0.169194 -0.0285889 
-0.0692573 0.169753 -0.0288779 
-0.0701178 0.170154 -0.0291958 
-0.0709934 0.170517 -0.0295248 
-0.0719831 0.170733 -0.0298702 
-0.0729725 0.170894 -0.0302341 
-0.0741328 0.170753 -0.0306566 
-0.0753758 0.170369 -0.0311391 
-0.076628 0.169808 -0.0316679 
-0.0596259 0.155781 0.0151651 
-0.0719917 0.151909 0.0358108 
-0.0591899 0.154851 0.0254882 
-0.048193 0.133027 0.0241926 
-0.0413787 0.124797 0.0224172 
-0.0376712 0.125956 0.0207679 
-0.0277867 0.0904111 0.0457123 
-0.0781974 0.153502 0.00273811 
-0.0766672 0.154399 0.00327135 
-0.0753023 0.155004 0.00375308 
-0.0740753 0.155198 0.0041876 
-0.0728197 0.155564 0.00463235 
-0.0412993 0.127471 0.0164976 
-0.0759244 0.155422 0.00936737 
-0.0603383 0.155998 0.00765284 
-0.0694586 0.153877 0.0321166 
-0.0712698 0.156094 0.0241098 
-0.0830831 0.152763 0.0275295 
-0.049763 0.132774 0.0280532 
-0.0624495 0.15591 0.022857 
-0.0872227 0.0941086 0.00335062 
-0.0830177 0.0951656 -0.00554205 
-0.091214 0.143385 0.025163 
-0.0889655 0.0969901 0.0204055 
-0.0759458 0.0974591 -0.0125133 
-0.0942177 0.125518 0.0172578 
-0.0888522 0.0996312 0.00941041 
-0.0887264 0.0996152 0.00841821 
-0.0820951 0.100566 -0.0055776 
-0.0869674 0.103645 0.0213508 
-0.0862725 0.103636 0.0233541 
-0.0851069 0.104842 0.00238218 
-0.0831779 0.111548 0.00129095 
-0.0841632 0.11158 0.00227497 
-0.045814 0.0898818 -0.0220292 
-0.0906194 0.139243 0.0211829 
-0.092935 0.117416 0.0233037 
-0.0935755 0.117419 0.0183042 
-0.0935183 0.117402 0.0193034 
-0.0924729 0.117499 0.0403021 
-0.0499383 0.162625 -0.0047964 
-0.042083 0.168351 -0.00985967 
-0.0676415 0.155906 0.0108585 
-0.0469792 0.133264 0.00837709 
-0.0341879 0.127198 0.0131711 
-0.0452276 0.131073 0.0164666 
-0.0457467 0.132003 0.0161756 
-0.0440271 0.128143 0.0184429 
-0.0606115 0.155938 0.0148123 
-0.0336965 0.120802 0.028215 
-0.0666005 0.156329 0.0184798 
-0.0370341 0.127886 0.0121304 
-0.0774721 0.155387 0.0234212 
-0.081048 0.154699 0.0221975 
-0.0243904 0.183518 -0.0110527 
-0.0257723 0.182903 -0.0115399 
-0.02728 0.181917 -0.0121056 
-0.0859779 0.0910726 0.0273961 
-0.0367225 0.125751 0.02112 
-0.0608634 0.154346 0.0292597 
-0.0304238 0.12007 0.0279522 
-0.0580932 0.155356 0.0200663 
-0.0640717 0.164086 -0.0255357 
-0.0647247 0.16489 -0.0257757 
-0.0653475 0.165775 -0.0260007 
-0.0660244 0.166553 -0.0262486 
-0.066735 0.167252 -0.0265095 
-0.0675078 0.167827 -0.0267933 
-0.0682325 0.168499 -0.0270627 
-0.0690431 0.169001 -0.0273587 
-0.0698247 0.169548 -0.0276555 
-0.0706968 0.169922 -0.0279808 
-0.0716236 0.170198 -0.0283222 
-0.0726143 0.1704 -0.0286759 
-0.0737877 0.170302 -0.0290826 
-0.0750304 0.169881 -0.0295693 
-0.0762918 0.169333 -0.0300921 
-0.059554 0.155543 0.0209921 
-0.0610591 0.155387 0.024814 
-0.0477004 0.131837 0.0244001 
-0.0392376 0.124806 0.0231803 
-0.0940189 0.11877 0.0172997 
-0.0823243 0.154364 0.0217732 
-0.0293211 0.123712 0.0208659 
-0.030188 0.124116 0.0205603 
-0.0345343 0.126083 0.0189612 
-0.0372934 0.126961 0.0179492 
-0.0383432 0.127011 0.0175779 
-0.0393291 0.127134 0.01721 
-0.0403111 0.127303 0.0168527 
-0.0590718 0.156479 0.0080978 
-0.0380005 0.12652 0.0191796 
-0.0658186 0.154852 0.00425231 
-0.0678494 0.155094 0.00351036 
-0.0532977 0.158553 0.00873827 
-0.0762512 0.156264 -0.00677505 
-0.0482692 0.133969 0.0226705 
-0.0758095 0.0920857 -0.0139153 
-0.07574 0.144451 -0.00587632 
-0.0890685 0.0969888 0.0194042 
-0.0887705 0.0969872 0.0214096 
-0.0914674 0.129551 0.00825277 
-0.0847653 0.103459 0.000382003 
-0.0876012 0.0995367 0.00546504 
-0.082938 0.100617 -0.00458659 
-0.0837054 0.10067 -0.00361944 
-0.0874054 0.110457 0.012344 
-0.085482 0.104867 0.00337403 
-0.085947 0.104892 0.00437979 
-0.0791181 0.10724 -0.00560787 
-0.0810695 0.111472 -0.000645954 
-0.0925573 0.125589 0.0382552 
-0.0856634 0.1104 0.0223511 
-0.0919525 0.126983 0.0392569 
-0.0922566 0.126816 0.00926569 
-0.0943935 0.125559 0.0222675 
-0.0315382 0.178553 -0.0120253 
-0.092775 0.128304 0.0272531 
-0.0896629 0.124003 0.00427429 
-0.0902327 0.124018 0.00527185 
-0.091005 0.124034 0.00628346 
-0.0732714 0.156195 0.0132096 
-0.0878262 0.152428 0.0199936 
-0.082872 0.154403 0.0201091 
-0.0332433 0.126938 0.0135159 
-0.0739928 0.155924 0.011504 
-0.0362517 0.123246 0.0257763 
-0.0462848 0.131856 0.0204922 
-0.062692 0.155999 0.0140721 
-0.0702292 0.153353 0.0333614 
-0.0799294 0.154987 0.0226092 
-0.0281162 0.181397 -0.0109687 
-0.0298496 0.180049 -0.0116061 
-0.0617979 0.154608 0.0289232 
-0.0632795 0.162306 -0.0238202 
-0.0638695 0.16329 -0.0240265 
-0.064489 0.16418 -0.0242498 
-0.065154 0.164972 -0.0244937 
-0.0658178 0.165764 -0.0247368 
-0.066536 0.166455 -0.0250024 
-0.067269 0.167119 -0.0252721 
-0.0679962 0.167786 -0.0255431 
-0.0687634 0.168362 -0.025835 
-0.0695817 0.168848 -0.0261289 
-0.0704486 0.16924 -0.0264473 
-0.0713267 0.169665 -0.0267525 
-0.0723216 0.169832 -0.0271166 
-0.0734182 0.169757 -0.0275332 
-0.0746874 0.169403 -0.0279937 
-0.0759846 0.168851 -0.0284951 
-0.0634727 0.156127 0.0195874 
-0.0620497 0.155563 0.0244621 
-0.0381943 0.124735 0.0235454 
-0.076294 0.155585 0.0106948 
-0.0310065 0.124592 0.0202545 
-0.0728479 0.14776 0.0416103 
-0.0577252 0.156918 0.00853143 
-0.0410118 0.126885 0.0180931 
-0.0668607 0.154942 0.00387089 
-0.0717955 0.156396 0.0195489 
-0.0427601 0.128938 0.0129983 
-0.0435244 0.129538 0.0127129 
-0.04424 0.130203 0.0124253 
-0.0448961 0.131042 0.0121815 
-0.0645986 0.15064 0.0368964 
-0.089275 0.0969971 0.0184044 
-0.0894207 0.0969969 0.0174102 
-0.0870966 0.0995146 0.0044219 
-0.088041 0.0995721 0.00642464 
-0.073544 0.177863 -0.0540307 
-0.0712429 0.177886 -0.0560058 
-0.0804236 0.104574 -0.00559216 
-0.0871543 0.105024 0.0183639 
-0.0648162 0.092445 -0.0185198 
-0.0927931 0.126937 0.0282668 
-0.0863235 0.110381 0.0203696 
-0.067463 0.166618 -0.0559977 
-0.0764027 0.109871 -0.00664525 
-0.0755266 0.109807 -0.00760163 
-0.0930011 0.116069 0.0193086 
-0.0928105 0.116053 0.0203106 
-0.0925679 0.116061 0.0213084 
-0.0881185 0.151555 0.0230923 
-0.0874625 0.123933 -0.000723767 
-0.0867734 0.123909 -0.00174219 
-0.0399008 0.128531 0.0110866 
-0.0609078 0.155801 0.00889681 
-0.0351154 0.127437 0.0128308 
-0.0455491 0.131451 0.0178282 
-0.0840303 0.151908 0.0287412 
-0.0528926 0.154865 0.0118243 
-0.0779922 0.155321 0.011561 
-0.0273746 0.181651 -0.00921581 
-0.0288938 0.180785 -0.00982491 
-0.0304041 0.179805 -0.0103906 
-0.0321103 0.178539 -0.0110044 
-0.0864154 0.152983 0.0204471 
-0.0627886 0.154765 0.0285735 
-0.0636773 0.162484 -0.0225185 
-0.0642828 0.163385 -0.0227384 
-0.0649478 0.164181 -0.0229827 
-0.0656191 0.164967 -0.0232289 
-0.0662913 0.165749 -0.0234747 
-0.0670519 0.166375 -0.0237602 
-0.0678037 0.166983 -0.024036 
-0.068567 0.167578 -0.0243154 
-0.0693375 0.168152 -0.0246084 
-0.07021 0.168534 -0.0249229 
-0.0710857 0.168903 -0.0252489 
-0.0720162 0.169175 -0.0255925 
-0.0730867 0.169281 -0.0259539 
-0.0743457 0.168929 -0.0264214 
-0.0756189 0.168382 -0.0269354 
-0.0304832 0.12104 0.0263992 
-0.055031 0.152471 0.0270238 
-0.0564476 0.153922 0.0264803 
-0.0372574 0.124492 0.0238955 
-0.0751451 0.15577 0.0110973 
-0.0787564 0.154933 0.00983696 
-0.0804177 0.153092 0.00488677 
-0.0534319 0.15708 0.0101259 
-0.0543644 0.15733 0.00977334 
-0.0554704 0.157309 0.00940753 
-0.0566266 0.157159 0.00899778 
-0.0840242 0.151932 0.0065796 
-0.0755392 0.154957 0.000803149 
-0.0419839 0.128576 0.0133734 
-0.0409763 0.128303 0.0136557 
-0.0361503 0.127316 0.0154104 
-0.0352134 0.127051 0.0157486 
-0.0342826 0.126777 0.01609 
-0.0333921 0.126443 0.0164188 
-0.0935168 0.125484 0.0132627 
-0.0932985 0.125478 0.0122618 
-0.08839 0.0995952 0.00742201 
-0.0936513 0.125496 0.0142597 
-0.0868829 0.105004 0.0193534 
-0.0865558 0.105007 0.0203641 
-0.0861938 0.104994 0.0213645 
-0.0874631 0.104981 0.0103802 
-0.0872319 0.104968 0.0093836 
-0.0876178 0.105003 0.0113725 
-0.0338028 0.122413 -0.00742547 
-0.0867708 0.110409 0.0193573 
-0.0749724 0.149924 -0.0268701 
-0.0931113 0.126933 0.0272608 
-0.0767885 0.154209 -0.0148974 
-0.0710782 0.156778 -0.0439119 
-0.0920212 0.128183 0.00926455 
-0.0939221 0.128285 0.0202478 
-0.029229 0.179986 -0.0130226 
-0.0482262 0.166987 -0.00394405 
-0.0780215 0.158305 -0.0199209 
-0.0721725 0.156265 0.0135984 
-0.0605798 0.155686 0.00466574 
-0.0866427 0.151554 0.0100877 
-0.0881735 0.15196 0.0139234 
-0.0522853 0.153955 0.0120432 
-0.029644 0.125848 0.0118936 
-0.0446029 0.130656 0.0108143 
-0.0633808 0.154539 0.0298218 
-0.0306217 0.126038 0.0115365 
-0.0282267 0.181005 -0.00798034 
-0.0296632 0.180174 -0.00867233 
-0.0310875 0.179405 -0.00921261 
-0.0328103 0.178226 -0.00982944 
-0.0849422 0.153595 0.0209155 
-0.0637251 0.155028 0.0282356 
-0.0314985 0.12639 0.0112101 
-0.0324286 0.126663 0.0108668 
-0.0629676 0.160574 -0.0208244 
-0.0635342 0.161573 -0.0210278 
-0.0641199 0.162494 -0.0212451 
-0.0647533 0.163375 -0.0214725 
-0.0654189 0.16417 -0.0217177 
-0.0661071 0.164936 -0.0219713 
-0.0668221 0.16563 -0.0222317 
-0.0675702 0.166262 -0.0225175 
-0.0683511 0.16683 -0.0228013 
-0.0691531 0.167331 -0.0231015 
-0.0699656 0.167828 -0.0233999 
-0.0707971 0.168292 -0.02371 
-0.0717205 0.168577 -0.0240459 
-0.0727774 0.16869 -0.0244081 
-0.0740576 0.168348 -0.0248615 
-0.0752762 0.167899 -0.0253615 
-0.0333161 0.126997 0.0105451 
-0.0487319 0.132909 0.0254731 
-0.0546261 0.151324 0.0271982 
-0.0450959 0.122461 0.0255697 
-0.044261 0.122001 0.0258917 
-0.0363751 0.12414 0.0242241 
-0.0718597 0.148728 0.0404251 
-0.0342458 0.127284 0.0102001 
-0.0351305 0.127632 0.00987733 
-0.0361152 0.127822 0.0095198 
-0.0894746 0.139279 0.0281819 
-0.038992 0.126654 0.0188148 
-0.0451957 0.131364 0.0135329 
-0.0457684 0.132352 0.0133121 
-0.0526926 0.151783 0.016281 
-0.0370524 0.128064 0.00917633 
-0.0771865 0.153815 0.000183792 
-0.037992 0.128312 0.00883318 
-0.032464 0.126152 0.0167563 
-0.0389761 0.128486 0.00847309 
-0.0897559 0.114544 0.00631807 
-0.0899879 0.140645 0.0281829 
-0.0903203 0.146073 0.0131505 
-0.0877279 0.139146 0.00920485 
-0.0907516 0.137857 0.0201957 
-0.0876027 0.103683 0.0193632 
-0.0879266 0.10368 0.0183585 
-0.0873262 0.103661 0.0203534 
-0.0842046 0.10344 -0.000635192 
-0.0838507 0.103422 -0.00164978 
-0.0878144 0.105004 0.012374 
-0.087069 0.100891 0.00537711 
-0.084606 0.0993653 -0.00159598 
-0.0840147 0.0993167 -0.00358504 
-0.036915 0.175546 -0.00898243 
-0.0734873 0.156859 -0.0289164 
-0.0920442 0.126938 0.0322524 
-0.0800951 0.15261 0.00324045 
-0.0925962 0.126825 0.0102659 
-0.0706828 0.180611 -0.0569213 
-0.067142 0.163768 -0.057034 
-0.0812769 0.136213 -0.00276757 
-0.076979 0.148604 -0.00699397 
-0.0867924 0.139107 0.00519652 
-0.0367472 0.127095 0.0166739 
-0.0448982 0.123992 0.0241166 
-0.0399647 0.128635 0.00811119 
-0.0678831 0.155252 0.000581516 
-0.0670639 0.154762 0.000889218 
-0.0471724 0.133935 0.00981498 
-0.0699384 0.150598 0.0380766 
-0.0694599 0.155751 0.00874428 
-0.0793777 0.154922 0.0242883 
-0.0351879 0.125718 0.0201989 
-0.0409513 0.128783 0.00774742 
-0.0418918 0.129001 0.00740866 
-0.0305611 0.179398 -0.00755573 
-0.0319282 0.178722 -0.00808101 
-0.0335046 0.177862 -0.00863199 
-0.0349807 0.177 -0.00919022 
-0.0745642 0.0928269 0.03994 
-0.083524 0.154076 0.0213615 
-0.0647128 0.155185 0.0278857 
-0.0736292 0.156748 -0.0014693 
-0.0429251 0.129071 0.00699388 
-0.0634399 0.160562 -0.0195565 
-0.0640006 0.161566 -0.01976 
-0.0645991 0.162478 -0.0199783 
-0.0652487 0.163342 -0.0202167 
-0.0658838 0.16421 -0.0204509 
-0.0666041 0.164889 -0.0207192 
-0.0673665 0.165482 -0.0209987 
-0.0681352 0.166058 -0.0212868 
-0.0689565 0.166538 -0.0215879 
-0.0697357 0.167099 -0.0218834 
-0.0705485 0.167591 -0.022181 
-0.0714792 0.167875 -0.0225174 
-0.0724891 0.168081 -0.0228518 
-0.0736982 0.167846 -0.0232955 
-0.0749362 0.167415 -0.0237916 
-0.0437757 0.12944 0.0066621 
-0.0401622 0.123949 0.0243503 
-0.0753414 0.15612 0.015399 
-0.0556539 0.153362 0.0267778 
-0.0432186 0.121963 0.0262727 
-0.0681261 0.15638 0.0193912 
-0.0475933 0.134581 0.0184866 
-0.0447211 0.129823 0.00637961 
-0.0454304 0.130382 0.00608349 
-0.075849 0.149415 0.0390624 
-0.0463734 0.133247 0.0130756 
-0.0294956 0.124519 0.0193203 
-0.0833215 0.153324 0.00972396 
-0.0747094 0.155646 0.00979649 
-0.0637348 0.156074 0.0136991 
-0.0737971 0.148055 0.0412991 
-0.0473115 0.134637 0.0112388 
-0.0306537 0.125522 0.0174226 
-0.0460575 0.131197 0.00582383 
-0.0727498 0.180616 -0.0549771 
-0.088744 0.0996845 0.0203875 
-0.0679091 0.108046 -0.0128123 
-0.0809703 0.132422 -0.00393108 
-0.0679169 0.115123 -0.00939662 
-0.0640364 0.138454 -0.00746704 
-0.0468796 0.105628 -0.0200508 
-0.0649244 0.113824 -0.0119395 
-0.0797391 0.110092 0.0425713 
-0.0698832 0.115052 -0.00855978 
-0.0759472 0.132533 -0.00707033 
-0.0488748 0.105594 -0.0196597 
-0.042206 0.166657 -0.0103803 
-0.0251326 0.166747 -0.01768 
-0.0520867 0.151648 -0.00355308 
-0.0142717 0.17714 -0.027303 
-0.0191507 0.168261 -0.0198644 
-0.0271419 0.168228 -0.0179326 
-0.0548013 0.086928 -0.0216118 
-0.0636783 0.0344406 0.016873 
-0.0630458 0.0345815 0.0177326 
-0.0647368 0.0350417 0.0261211 
-0.0661617 0.0353568 0.0288449 
-0.0669938 0.0358141 0.0313063 
-0.0669849 0.0359436 0.0326963 
-0.0668209 0.036036 0.0339126 
-0.066685 0.0361231 0.0351414 
-0.0665769 0.0362823 0.0365183 
-0.0662971 0.0363734 0.0376513 
-0.0659364 0.0364202 0.0386491 
-0.0597919 0.0868174 -0.0202685 
-0.064973 0.0365283 0.0405192 
-0.0643928 0.0366139 0.0414145 
-0.0820284 0.13533 -0.00235647 
-0.063129 0.0366622 0.0429743 
-0.0623699 0.0366895 0.0436353 
-0.0615835 0.0366556 0.0444374 
-0.0608837 0.0367165 0.0449842 
-0.0600876 0.0367271 0.0456071 
-0.059243 0.0367531 0.0461369 
-0.0580048 0.0366442 0.0464062 
-0.0569251 0.0366412 0.0466659 
-0.0556277 0.0365615 0.0468082 
-0.078421 0.120421 0.0514142 
-0.0866419 0.0923952 0.0266005 
-0.0348191 0.0886631 -0.024431 
-0.0470363 0.0359078 0.0451061 
-0.0447375 0.0357143 0.0441717 
-0.0779478 0.107702 0.034147 
-0.0789759 0.136856 -0.00458832 
-0.0182946 0.181579 -0.0243778 
-0.0391315 0.160685 -0.012118 
-0.0769711 0.133968 -0.00621304 
-0.074953 0.131092 -0.00759533 
-0.0498819 0.105595 -0.0195612 
-0.064968 0.128232 -0.00872903 
-0.0478723 0.105599 -0.0198923 
-0.0570131 0.128126 -0.00643112 
-0.037115 0.160706 -0.0129903 
-0.085893 0.115781 0.0473131 
-0.0679519 0.129695 -0.00900682 
-0.0723733 0.0352474 0.00704331 
-0.072066 0.0353469 0.00817017 
-0.0715958 0.035386 0.00909438 
-0.0709835 0.0353942 0.00988845 
-0.0703389 0.0353326 0.0107638 
-0.0696814 0.0354769 0.0114289 
-0.069135 0.0354547 0.0122501 
-0.0684642 0.035536 0.0130279 
-0.0677955 0.0355805 0.0137906 
-0.0671319 0.0355924 0.0145398 
-0.0663805 0.0356243 0.0152158 
-0.0656741 0.0356447 0.0159226 
-0.0650165 0.0356472 0.0166692 
-0.0642775 0.0356785 0.0173446 
-0.0637593 0.0357681 0.0182478 
-0.0631194 0.0357147 0.0189543 
-0.0624231 0.0357528 0.0196573 
-0.0588165 0.0667309 0.0351477 
-0.0649174 0.0364897 0.025021 
-0.0658345 0.0367656 0.0273328 
-0.0664962 0.0370022 0.0293944 
-0.0668989 0.0372019 0.0312012 
-0.0670049 0.0372923 0.032499 
-0.0667337 0.0374088 0.0337222 
-0.066706 0.0375681 0.0351923 
-0.0664522 0.0376478 0.0363332 
-0.066213 0.0377522 0.0375383 
-0.0657729 0.0378142 0.038507 
-0.0652746 0.0378654 0.0394026 
-0.0647467 0.0379255 0.0402853 
-0.0642758 0.0379734 0.0412454 
-0.0637308 0.0380192 0.0421186 
-0.0631004 0.038056 0.0429096 
-0.0623246 0.0380624 0.0435494 
-0.0615813 0.0380878 0.0442214 
-0.0608849 0.0381036 0.0449409 
-0.0601123 0.0381131 0.0455939 
-0.0592916 0.0381211 0.04617 
-0.0582688 0.0380855 0.0465946 
-0.0572001 0.0380562 0.0469117 
-0.0559057 0.0379831 0.047068 
-0.0816795 0.117485 0.0486704 
-0.0781026 0.0818813 0.0353359 
-0.080536 0.135397 0.0502642 
-0.0761145 0.157637 -0.00836344 
-0.0769362 0.0914256 0.0381174 
-0.0649024 0.119454 -0.00881631 
-0.0428468 0.0368545 0.044028 
-0.0401934 0.0365351 0.0429119 
-0.0388776 0.0364147 0.043017 
-0.0382309 0.0365042 0.0436563 
-0.0376065 0.0365426 0.0444186 
-0.0369296 0.036554 0.0451414 
-0.0362701 0.0365605 0.0458807 
-0.0719356 0.110274 0.042413 
-0.0338206 0.0367327 0.0490996 
-0.0332147 0.036763 0.0499127 
-0.0316383 0.0367739 0.0511824 
-0.0308026 0.0367564 0.0517774 
-0.0300389 0.036799 0.0524219 
-0.0292503 0.036802 0.0530596 
-0.0283411 0.0368095 0.0535577 
-0.0272685 0.0368017 0.0538626 
-0.0913706 0.116528 0.0258009 
-0.0761803 0.0914451 0.0387697 
-0.0805022 0.0831735 0.0334637 
-0.0770317 0.088754 0.0382806 
-0.0780422 0.0846436 0.0366002 
-0.0760841 0.164579 -0.0198769 
-0.0749519 0.164602 -0.018207 
-0.0725589 0.0360747 0.00146649 
-0.0724467 0.0361675 0.00255211 
-0.0723608 0.0363259 0.00395733 
-0.0726014 0.0365856 0.00586956 
-0.0725775 0.0367142 0.00725292 
-0.0722633 0.0367738 0.0082856 
-0.0716377 0.0368114 0.00909586 
-0.0708619 0.0368523 0.00979504 
-0.0701989 0.0368637 0.0105096 
-0.0694879 0.0368888 0.0112092 
-0.0688721 0.0369953 0.0119906 
-0.0684496 0.0369814 0.0129839 
-0.0677747 0.0370061 0.0137537 
-0.0671438 0.037039 0.0145094 
-0.0663574 0.0370366 0.0151548 
-0.0655788 0.037063 0.0157921 
-0.0648003 0.0370671 0.0164284 
-0.0639993 0.0370815 0.0170442 
-0.0633486 0.0371336 0.0178291 
-0.0626129 0.0371673 0.0184653 
-0.0619624 0.0371632 0.0192279 
-0.0614566 0.0372076 0.0201515 
-0.0646788 0.0378404 0.0247428 
-0.0652548 0.0380623 0.0267185 
-0.0661715 0.0383371 0.0290301 
-0.0664042 0.0385079 0.0306689 
-0.0662143 0.0386042 0.0318887 
-0.0661919 0.0387353 0.0332699 
-0.0663865 0.0388997 0.0348294 
-0.0662201 0.0390045 0.0360529 
-0.0659208 0.0390922 0.037189 
-0.0654261 0.0391693 0.0381077 
-0.0649149 0.0392337 0.0390271 
-0.0643722 0.0392301 0.0399397 
-0.0638844 0.0392942 0.0408356 
-0.0634342 0.039353 0.0417984 
-0.0628785 0.0393963 0.0426563 
-0.0622047 0.0394245 0.0433885 
-0.0613646 0.0394268 0.0439671 
-0.0606247 0.0394421 0.0446315 
-0.0599208 0.0394628 0.0453423 
-0.0591403 0.039472 0.0459797 
-0.0582195 0.03947 0.0465299 
-0.0571511 0.0394305 0.0468685 
-0.0827169 0.105982 0.0279083 
-0.0753098 0.0805155 0.0368289 
-0.0679826 0.0819454 0.0421862 
-0.03681 0.0886191 -0.0239226 
-0.0889045 0.133745 0.0416542 
-0.0835459 0.133987 0.0490485 
-0.0832136 0.0770175 0.0194025 
-0.0401042 0.037954 0.0427598 
-0.038893 0.0378836 0.042947 
-0.0383306 0.0379343 0.0437226 
-0.0376745 0.0379475 0.0444361 
-0.0370447 0.0379826 0.045213 
-0.0363535 0.0380033 0.0459253 
-0.0357437 0.0380351 0.0467216 
-0.035201 0.0380831 0.0475916 
-0.0346044 0.0381371 0.0484275 
-0.0340062 0.0381682 0.049242 
-0.0334338 0.0382234 0.0500909 
-0.0326689 0.0382268 0.0507498 
-0.0317095 0.0382098 0.0512104 
-0.0308589 0.0382072 0.0517831 
-0.0301563 0.0382285 0.0524978 
-0.0294534 0.0382504 0.0532249 
-0.0285615 0.0382432 0.0537594 
-0.0274456 0.0382197 0.0539829 
-0.0702982 0.0846763 0.0415948 
-0.0849325 0.0938555 0.0290926 
-0.0388049 0.0885478 -0.0231132 
-0.0794364 0.144805 0.0432098 
-0.0834291 0.14469 0.0401339 
-0.0756035 0.0846721 0.0383975 
-0.0558611 0.0955845 -0.021564 
-0.0588398 0.0954803 -0.0203334 
-0.0597928 0.095429 -0.0195264 
-0.0797918 0.11331 -0.00252121 
-0.0849635 0.115612 0.0476218 
-0.0633961 0.0610267 0.0215327 
-0.0566835 0.124286 -0.00724626 
-0.0720001 0.0374977 0.00101403 
-0.0718937 0.0376106 0.00231258 
-0.0719585 0.0377493 0.00378419 
-0.0725333 0.0379686 0.00575754 
-0.0723402 0.0380689 0.00697334 
-0.0719602 0.0381531 0.00797803 
-0.0712669 0.0381904 0.00872646 
-0.0705682 0.0382102 0.00943236 
-0.0697739 0.0382195 0.0100596 
-0.0690425 0.0382325 0.0107396 
-0.0683549 0.0382578 0.0114352 
-0.0679678 0.0383221 0.0123903 
-0.0674828 0.0383816 0.0133921 
-0.06674 0.0383979 0.0141071 
-0.0660641 0.0384249 0.0148213 
-0.0652396 0.0384193 0.0154218 
-0.0644302 0.0384213 0.0160253 
-0.0635208 0.0384034 0.0165311 
-0.0629014 0.0384346 0.017326 
-0.0621446 0.0384632 0.0179813 
-0.0614924 0.0384787 0.0187446 
-0.0608714 0.0385134 0.0195368 
-0.0598385 0.0385019 0.0199857 
-0.0641545 0.0391804 0.0263583 
-0.0652279 0.0397522 0.0288372 
-0.0655356 0.0398001 0.0300899 
-0.0654856 0.0398574 0.0313799 
-0.065424 0.0399796 0.0326661 
-0.0658806 0.040185 0.0344505 
-0.0657805 0.04031 0.0356744 
-0.0654577 0.0403952 0.0367257 
-0.0650934 0.040468 0.0377689 
-0.0646669 0.0405364 0.0387423 
-0.0641268 0.0405801 0.0396199 
-0.063603 0.0406323 0.0405017 
-0.0631801 0.0406886 0.0415101 
-0.0626778 0.0407451 0.0424121 
-0.0620034 0.040777 0.0431481 
-0.0612252 0.0407891 0.0437895 
-0.0603522 0.0407823 0.0443369 
-0.0595653 0.0407951 0.0449735 
-0.0588282 0.0408079 0.0456406 
-0.0579692 0.0408152 0.0462221 
-0.073142 0.0762988 0.0362199 
-0.0810472 0.147398 0.0390836 
-0.0876158 0.137864 0.0416648 
-0.0699648 0.0791315 0.0398469 
-0.0862734 0.13657 0.044609 
-0.0826044 0.1367 0.0480323 
-0.0283222 0.0749245 0.042497 
-0.0801569 0.0817921 0.0331577 
