# .PCD v.7 - Point Cloud Data file format
VERSION .7
FIELDS x y z
SIZE 4 4 4
TYPE F F F
COUNT 1 1 1
WIDTH 1919
HEIGHT 1
VIEWPOINT 0 0 0 1 0 0 0
POINTS 1919
DATA ascii
0.75815 0.10644 -0.09395
0.7499 0.10554 -0.10357
0.77226 0.10551 -0.09812
0.77219 0.1052 -0.10879
0.78143 0.10433 -0.09924
0.78461 0.10416 -0.10676
0.79665 0.10208 -0.09737
0.76966 0.10716 -0.11787
0.78731 0.1073 -0.11543
0.80176 0.10282 -0.10471
0.80714 0.10459 -0.10885
0.71905 0.11825 -0.11104
0.70276 0.11742 -0.09958
0.68686 0.10842 -0.07523
0.68462 0.10174 -0.06686
0.80531 0.11344 -0.11398
0.78583 0.1174 -0.11896
0.76657 0.12185 -0.12401
0.74148 0.12816 -0.12126
0.7433 0.11433 -0.11813
0.72095 0.12892 -0.11129
0.70318 0.1284 -0.09835
0.68144 0.12096 -0.07101
0.67761 0.11919 -0.05915
0.72485 0.14068 -0.11291
0.70596 0.14172 -0.09678
0.74526 0.13959 -0.11985
0.77194 0.13312 -0.12563
0.68583 0.13418 -0.07245
0.67885 0.13265 -0.05456
0.79158 0.12505 -0.12241
0.80997 0.12275 -0.11578
0.68811 0.13659 -0.04613
0.74674 0.14418 -0.10859
0.77253 0.13993 -0.11722
0.72869 0.14748 -0.09981
0.71429 0.14759 -0.08817
0.69568 0.14461 -0.06634
0.79122 0.13371 -0.11687
0.80583 0.12964 -0.1106
0.72603 0.10942 0.08149
0.71454 0.1276 0.07962
0.69312 0.13422 0.07242
0.6949 0.13581 0.07994
0.69414 0.13547 0.09212
0.72346 0.10756 0.08765
0.71088 0.12351 0.09356
0.72045 0.10917 0.09505
0.72614 0.09298 0.09662
0.66294 0.11237 0.11323
0.66974 0.12749 0.11055
0.66629 0.1288 0.09207
0.65653 0.11032 0.10109
0.66505 0.1286 0.08444
0.67523 0.13438 0.07961
0.67509 0.13492 0.08567
0.67766 0.13516 0.09938
0.65624 0.11289 0.09175
0.66419 0.0982 0.12212
0.69691 0.1382 0.11784
0.71377 0.1259 0.11476
0.7061 0.13968 0.13464
0.7209 0.11405 0.11747
0.71712 0.12963 0.13579
0.71953 0.14013 0.15625
0.72425 0.11772 0.137
0.7272 0.13426 0.15545
0.73027 0.14062 0.16713
0.74291 0.12464 0.16122
0.73449 0.12194 0.15209
0.73707 0.13636 0.1631
0.74498 0.13778 0.17377
0.75281 0.1266 0.16733
0.72228 0.09929 0.11881
0.72321 0.10558 0.14111
0.732 0.1101 0.15464
0.73853 0.11186 0.16375
0.7504 0.10991 0.16875
0.76617 0.12398 0.17092
0.75034 0.13419 0.17121
0.76701 0.13203 0.17479
0.76642 0.13591 0.18054
0.76473 0.11016 0.17212
0.78073 0.11972 0.1714
0.77954 0.12666 0.17684
0.77935 0.1317 0.18242
0.77373 0.10846 0.1723
0.79273 0.11718 0.1704
0.79302 0.12344 0.17437
0.79229 0.12729 0.18161
0.83959 0.11358 0.16898
0.78908 0.10611 0.16979
0.71639 0.08248 0.12472
0.71842 0.09112 0.14078
0.69516 0.08695 0.13145
0.69857 0.09525 0.14907
0.72659 0.09965 0.1615
0.71013 0.09939 0.16875
0.73896 0.10387 0.16602
0.72187 0.10268 0.1794
0.74988 0.10368 0.16929
0.74104 0.10259 0.17835
0.7637 0.10266 0.17431
0.76296 0.10212 0.18496
0.77278 0.10144 0.17599
0.77548 0.10112 0.18369
0.78809 0.09922 0.17503
0.75987 0.10389 0.1939
0.77763 0.10407 0.19257
0.79273 0.0998 0.18269
0.79784 0.10149 0.18719
0.70977 0.11516 0.18413
0.69423 0.11458 0.17166
0.67991 0.1061 0.14618
0.6782 0.09959 0.13755
0.79568 0.11023 0.19238
0.77592 0.1141 0.19621
0.75638 0.11845 0.20014
0.73151 0.12484 0.19595
0.73353 0.11107 0.19266
0.71164 0.12582 0.18473
0.69473 0.12558 0.1707
0.67476 0.11873 0.14189
0.67167 0.11721 0.12978
0.71543 0.13754 0.18684
0.69759 0.13893 0.16958
0.73537 0.13629 0.19502
0.76163 0.12968 0.20233
0.67903 0.13192 0.14388
0.67319 0.13076 0.12556
0.78144 0.12166 0.20018
0.80022 0.11949 0.19467
0.68296 0.13487 0.11781
0.73755 0.14111 0.18397
0.76275 0.13667 0.19412
0.72008 0.14461 0.17415
0.70644 0.14497 0.16163
0.68924 0.14246 0.13862
0.78143 0.13044 0.19481
0.7964 0.1265 0.18938
-0.62541 -0.18316 0.11567
-0.64157 -0.19169 0.10896
-0.65404 -0.18034 0.08844
-0.6176 -0.18055 -0.13278
-0.63415 -0.18922 -0.12728
-0.64789 -0.17829 -0.10735
-0.46031 -0.24138 -0.00411
-0.47341 -0.24052 0.06294
-0.48083 -0.22175 0.09604
-0.58991 -0.19516 0.11203
-0.55332 -0.21301 0.10311
-0.51624 -0.22221 0.1033
-0.4955 -0.24449 0.06137
-0.50427 -0.24187 0.07562
-0.5181 -0.23462 0.08626
-0.53621 -0.23779 0.07697
-0.54419 -0.23622 0.06726
-0.56653 -0.22898 0.07075
-0.58791 -0.22531 0.07402
-0.58967 -0.21878 0.0867
-0.60133 -0.21074 0.09287
-0.61747 -0.20726 0.08991
-0.62598 -0.20548 0.08564
-0.62868 -0.20953 0.07534
-0.62502 -0.2125 0.06524
-0.66567 -0.1716 -0.00984
-0.61445 -0.21826 0.05847
-0.61637 -0.20715 -0.00866
-0.59748 -0.22481 0.06333
-0.5686 -0.22578 -0.00735
-0.54065 -0.24224 0.05349
-0.5261 -0.24356 0.04479
-0.52693 -0.23442 -0.00614
-0.50737 -0.24787 0.05145
-0.66208 -0.18208 0.06359
-0.51212 -0.26764 0.0668
-0.51834 -0.26578 0.0769
-0.52815 -0.26064 0.08445
-0.54099 -0.26288 0.07786
-0.54665 -0.26177 0.07098
-0.54414 -0.26604 0.06121
-0.53382 -0.26697 0.05504
-0.52054 -0.27004 0.05977
-0.6038 -0.24537 0.07504
-0.60505 -0.24074 0.08403
-0.61332 -0.23505 0.08841
-0.62477 -0.23258 0.08631
-0.6308 -0.23131 0.08328
-0.63272 -0.23419 0.07597
-0.63012 -0.23629 0.06881
-0.62262 -0.24038 0.06401
-0.61059 -0.24502 0.06746
-0.53939 -0.28135 0.05416
-0.52644 -0.28433 0.05877
-0.54946 -0.28043 0.06018
-0.5519 -0.27627 0.0697
-0.54638 -0.27735 0.07642
-0.53386 -0.27517 0.08284
-0.52429 -0.28018 0.07548
-0.51822 -0.282 0.06563
-0.61743 -0.25889 0.06618
-0.61081 -0.25923 0.07358
-0.62916 -0.25436 0.06282
-0.63648 -0.25037 0.0675
-0.63901 -0.24832 0.07449
-0.63714 -0.24551 0.08161
-0.63126 -0.24675 0.08457
-0.62009 -0.24916 0.08662
-0.61202 -0.25471 0.08235
-0.53926 -0.28877 0.06771
-0.62744 -0.26179 0.07514
-0.47452 -0.21964 -0.10493
-0.46918 -0.23911 -0.07183
-0.5824 -0.19266 -0.12717
-0.54642 -0.21071 -0.11635
-0.5094 -0.21992 -0.1144
-0.49132 -0.2431 -0.07173
-0.51232 -0.23269 -0.09777
-0.49918 -0.24018 -0.08644
-0.53097 -0.23604 -0.08971
-0.53955 -0.23467 -0.08049
-0.58373 -0.21679 -0.10238
-0.58276 -0.22359 -0.08975
-0.56163 -0.22734 -0.08523
-0.59498 -0.20863 -0.10909
-0.61129 -0.2052 -0.10709
-0.62004 -0.2035 -0.10332
-0.62036 -0.21094 -0.08305
-0.62338 -0.20776 -0.0933
-0.65747 -0.18055 -0.0831
-0.61023 -0.21686 -0.07575
-0.59299 -0.22331 -0.07968
-0.53688 -0.24098 -0.06665
-0.5229 -0.24249 -0.05708
-0.50379 -0.24668 -0.06265
-0.51313 -0.26404 -0.08911
-0.50755 -0.26611 -0.07868
-0.52245 -0.25873 -0.09714
-0.53567 -0.26111 -0.09143
-0.54175 -0.26014 -0.08489
-0.53986 -0.26461 -0.07507
-0.52995 -0.26568 -0.06829
-0.5164 -0.26865 -0.07224
-0.59923 -0.2388 -0.10114
-0.59855 -0.24362 -0.09219
-0.60721 -0.23301 -0.1059
-0.61877 -0.23058 -0.10448
-0.62499 -0.22937 -0.10181
-0.62736 -0.2324 -0.0947
-0.62521 -0.23465 -0.08743
-0.61803 -0.23884 -0.08226
-0.6058 -0.24342 -0.08504
-0.52233 -0.28296 -0.07191
-0.53555 -0.28007 -0.06806
-0.54522 -0.27902 -0.07468
-0.54706 -0.27466 -0.08425
-0.54113 -0.2756 -0.09063
-0.52823 -0.27329 -0.09621
-0.51914 -0.27847 -0.08837
-0.5137 -0.28049 -0.07819
-0.60562 -0.2575 -0.09146
-0.6127 -0.25731 -0.08449
-0.62462 -0.25284 -0.08177
-0.63163 -0.24875 -0.08682
-0.63372 -0.24655 -0.09391
-0.63141 -0.2436 -0.10084
-0.62535 -0.24478 -0.10345
-0.61407 -0.24715 -0.10484
-0.60629 -0.2528 -0.10019
-0.53457 -0.28721 -0.08173
-0.62212 -0.26002 -0.09411
0.20889 -0.31214 0.16257
0.23254 -0.30344 0.15655
0.222 -0.33423 0.14992
0.2559 -0.30209 0.14226
0.24119 -0.33683 0.13961
0.26988 -0.31339 0.12376
0.26682 -0.34047 0.11013
0.23398 -0.3558 0.13373
0.21161 -0.35527 0.14212
0.17805 -0.3469 0.15118
0.19277 -0.32785 0.15865
0.20264 -0.36578 0.13738
0.17068 -0.35814 0.14455
0.19215 -0.37962 0.12674
0.15973 -0.37534 0.13358
0.17849 -0.39907 0.10843
0.21978 -0.38527 0.11991
0.20904 -0.40341 0.10479
0.22701 -0.39786 0.10463
0.24307 -0.38573 0.10278
0.22939 -0.36833 0.12872
0.2578 -0.36847 0.10737
0.2787 -0.32676 0.10655
0.29733 -0.34999 0.08345
0.27241 -0.37159 0.0958
0.28664 -0.37674 0.08468
0.27167 -0.39846 0.08996
0.25732 -0.40835 0.0936
0.23972 -0.42026 0.09533
0.21298 -0.42305 0.09532
0.19809 -0.41883 0.0967
0.17168 -0.40703 0.10215
0.14528 -0.39534 0.12197
0.31342 -0.35691 0.06623
0.29973 -0.3814 0.07007
0.28388 -0.41022 0.07259
0.26747 -0.42322 0.07575
0.24531 -0.43567 0.07614
0.21371 -0.43802 0.07909
0.19031 -0.43027 0.07905
0.16644 -0.42103 0.08522
0.13521 -0.41063 0.10504
0.31567 -0.35979 0.01903
0.30067 -0.3845 0.0183
0.2852 -0.41255 0.01752
0.26759 -0.42627 0.01682
0.24452 -0.43563 0.016
0.21275 -0.44051 0.01495
0.18309 -0.432 0.0141
0.15607 -0.41812 0.0134
0.11875 -0.40071 0.01241
0.32309 -0.28258 0.10667
0.30723 -0.25214 0.12928
0.32926 -0.23905 0.11659
0.3443 -0.27537 0.09198
0.32068 -0.30684 0.09128
0.31032 -0.29146 0.11125
0.29068 -0.27662 0.13076
0.27939 -0.28929 0.1297
0.27736 -0.27818 0.15231
0.33045 -0.32199 0.07673
0.33607 -0.33394 0.06336
0.33946 -0.33782 0.02
0.34977 -0.32508 0.06436
0.35215 -0.3272 0.02051
0.34512 -0.30955 0.07472
-0.36619 -0.26703 0.11923
-0.36834 -0.27492 0.1121
-0.33699 -0.24915 0.14886
-0.35118 -0.28392 0.12638
-0.32669 -0.29393 0.12703
-0.27496 -0.282 0.15401
-0.30516 -0.29825 0.13606
-0.28793 -0.30758 0.13386
-0.26383 -0.30896 0.13796
-0.19867 -0.30131 0.147
-0.20624 -0.31696 0.13584
-0.21164 -0.32844 0.09518
-0.28447 -0.31158 0.09422
-0.35157 -0.2861 0.08158
-0.37095 -0.27569 0.07681
-0.35169 -0.2908 0.06061
-0.28259 -0.31851 0.06503
-0.2156 -0.33308 0.06621
-0.10765 -0.32065 0.11769
-0.1133 -0.33645 0.07248
-0.11866 -0.34052 0.00558
-0.22142 -0.33362 0.00242
-0.28216 -0.31918 0.00067
-0.34731 -0.29148 -0.00109
0.01929 -0.58193 0.16032
0.02785 -0.58373 0.1646
0.02375 -0.61406 0.17045
0.04725 -0.58371 0.15594
0.06079 -0.58467 0.15812
0.06132 -0.61449 0.16524
0.06644 -0.58631 0.14562
0.06725 -0.61707 0.14858
0.0116 -0.61286 0.17047
0.00879 -0.62182 0.16802
0.01596 -0.63583 0.16629
0.00176 -0.63595 0.16871
0.0152 -0.64352 0.16142
0.06955 -0.63962 0.14965
0.06451 -0.64188 0.1653
0.03145 -0.61273 0.17285
0.03911 -0.58156 0.15788
-0.00017 -0.63756 0.14023
0.0129 -0.649 0.14492
0.03041 -0.6472 0.12793
0.00652 -0.63609 0.12267
0.01884 -0.61678 0.1244
0.02476 -0.57756 0.12985
0.01604 -0.58389 0.14401
0.00578 -0.61752 0.14473
0.04637 -0.63793 0.16762
0.04333 -0.611 0.16547
0.03204 -0.63754 0.17217
0.02447 -0.63762 0.17057
0.0609 -0.60778 0.13493
0.06316 -0.63884 0.13801
0.03338 -0.61633 0.11862
0.05061 -0.63779 0.12705
0.05093 -0.60934 0.12474
0.04921 -0.58217 0.12479
0.04285 -0.57861 0.12562
0.06251 -0.58759 0.13685
0.06909 -0.54386 0.15779
0.09029 -0.50857 0.15856
0.09824 -0.50638 0.14525
0.10338 -0.48338 0.16221
0.10942 -0.48474 0.1464
0.12014 -0.43714 0.16339
0.12644 -0.43595 0.14913
0.1313 -0.41025 0.17316
0.13653 -0.40851 0.15539
0.03746 -0.53722 0.16078
0.04406 -0.50237 0.16732
0.02691 -0.53854 0.15603
0.05416 -0.47666 0.17074
0.03409 -0.50034 0.16289
0.06894 -0.42997 0.17712
0.04018 -0.46882 0.16906
0.06668 -0.40082 0.18553
0.04541 -0.42527 0.1734
0.02312 -0.53848 0.14803
0.02484 -0.49601 0.15462
0.02529 -0.46446 0.15602
0.04992 -0.39473 0.17857
0.03655 -0.41884 0.16465
0.02641 -0.53328 0.13931
0.02802 -0.49559 0.13925
0.02873 -0.46326 0.1394
0.0408 -0.39089 0.16825
0.03124 -0.41842 0.14213
0.04352 -0.53174 0.12571
0.04203 -0.49481 0.12454
0.04508 -0.46762 0.1238
0.04087 -0.379 0.12678
0.05621 -0.40937 0.12394
0.07313 -0.54475 0.14727
0.113 -0.41249 0.18247
0.10692 -0.43378 0.17718
0.05805 -0.54146 0.16425
0.08639 -0.48362 0.17664
0.04736 -0.54051 0.16442
0.09415 -0.39887 0.19236
0.08758 -0.42703 0.18098
0.07258 -0.4835 0.17572
0.05879 -0.51456 0.17004
0.07432 -0.51418 0.16991
0.08309 -0.39496 0.11121
0.06361 -0.38952 0.11419
0.08111 -0.41017 0.12131
0.06222 -0.47154 0.11588
0.07359 -0.54124 0.13106
0.05346 -0.54033 0.12063
0.08466 -0.49489 0.12527
0.0577 -0.49849 0.11647
0.12117 -0.40737 0.11409
0.11718 -0.43406 0.12031
0.09582 -0.47374 0.12253
0.16592 -0.36147 0.17046
0.15744 -0.36349 0.18917
0.15407 -0.38225 0.16246
0.13768 -0.35172 0.20493
0.14546 -0.38557 0.18034
0.11011 -0.34967 0.20601
0.12676 -0.38991 0.19012
0.07853 -0.33807 0.20117
0.09951 -0.38044 0.19937
0.06132 -0.33582 0.19184
0.06881 -0.37371 0.19358
0.05023 -0.33508 0.18099
0.05561 -0.36353 0.18809
0.03916 -0.32745 0.1509
0.04754 -0.35655 0.17266
0.177 -0.34659 0.17647
0.17326 -0.34136 0.1915
0.1547 -0.33062 0.2088
0.12466 -0.32296 0.21273
0.09441 -0.31289 0.2073
0.07349 -0.31247 0.20142
0.05901 -0.31149 0.19365
0.0405 -0.30268 0.16276
0.19269 -0.32216 0.18381
0.09903 -0.29311 0.20951
0.13782 -0.29825 0.21432
0.16747 -0.30977 0.20793
0.18225 -0.31878 0.20003
0.06572 -0.28566 0.20007
0.08235 -0.2912 0.20911
0.47403 0.09956 0.03449
0.47105 0.1026 0.02875
0.47462 0.08884 0.0569
0.4701 0.06533 0.07767
0.46703 0.04169 0.08421
0.46402 0.01799 0.09073
0.45642 -0.0291 0.10364
0.44465 -0.07815 0.109
0.43833 -0.14534 0.10799
0.43228 -0.18585 0.10178
0.4333 -0.20367 0.09283
0.43178 -0.219 0.08311
0.43362 -0.24656 0.06656
0.4439 -0.25659 0.05526
0.43929 -0.25787 0.02398
0.40296 -0.28898 0.05592
0.40338 -0.28686 0.02255
0.36033 0.10871 0.02534
0.42549 0.10305 0.02733
0.41971 0.09205 0.05486
0.36053 0.10078 0.05887
0.41525 0.06848 0.0756
0.36071 0.07905 0.08169
0.41312 0.04303 0.08485
0.36962 0.04798 0.09517
0.41067 0.0155 0.09453
0.36415 0.01427 0.10947
0.40161 -0.03132 0.10723
0.36305 -0.03224 0.12044
0.40015 -0.08515 0.11001
0.36438 -0.08607 0.12557
0.39748 -0.1519 0.11904
0.36501 -0.1633 0.13069
0.36151 -0.12773 0.13197
0.39774 -0.19133 0.11294
0.35865 -0.19383 0.1287
0.39506 -0.21634 0.09889
0.35344 -0.2288 0.10794
0.39161 -0.2455 0.08568
0.39817 -0.27299 0.06837
0.35177 -0.08659 0.14257
0.34849 -0.13553 0.14072
0.34492 -0.16608 0.14114
0.31941 -0.21859 0.13979
0.33582 -0.19361 0.14044
0.34168 -0.03047 0.1352
0.33708 -0.02749 0.13972
0.33673 0.01571 0.12279
0.26494 -0.27434 0.17381
0.27926 -0.25739 0.18175
0.29808 -0.25348 0.15552
0.29251 -0.22426 0.18135
0.30897 -0.2272 0.1522
0.31133 -0.18879 0.1907
0.32587 -0.1918 0.16475
0.32354 -0.1623 0.18963
0.33469 -0.16333 0.1696
0.32806 -0.12143 0.18131
0.34013 -0.1345 0.16311
0.3367 -0.07303 0.16046
0.34183 -0.07624 0.15051
0.34684 -0.03013 0.13107
0.32606 0.11669 0.02435
0.32409 0.11103 0.05413
0.32592 0.0921 0.08079
0.33014 0.04522 0.11431
0.20132 -0.30872 0.18118
0.22323 -0.29525 0.18491
0.31255 0.10985 0.05915
0.31366 0.10047 0.07801
0.31645 0.0623 0.10933
0.31749 0.02727 0.13319
0.31901 -0.00974 0.14868
0.31161 -0.05743 0.17392
0.30565 -0.09993 0.19354
0.29792 -0.14648 0.20852
0.28367 -0.19176 0.21392
0.26542 -0.22212 0.20782
0.25558 -0.24526 0.20603
0.23713 -0.27316 0.19052
0.1743 -0.26516 0.21325
0.20483 -0.22221 0.22598
0.27303 0.12807 0.05227
0.27352 0.13397 0.02288
0.21786 -0.197 0.2297
0.22552 -0.17648 0.23306
0.23387 -0.12 0.22792
0.23811 -0.07802 0.20941
0.24683 -0.02833 0.1893
0.26059 0.02045 0.16426
0.2629 0.07639 0.12683
0.26692 0.10516 0.08935
0.26902 0.12177 0.06564
0.02011 0.19923 0.04227
0.02506 0.20619 0.01583
0.10418 0.18187 0.01806
0.017 0.18439 0.06324
0.09625 0.15966 0.06431
0.01923 0.16582 0.08657
0.08686 0.14011 0.09369
0.01051 0.13344 0.11908
0.07688 0.09491 0.13252
-0.00882 0.11048 0.1498
0.07973 0.05494 0.16097
-0.01689 0.05132 0.19311
0.07722 0.01528 0.18126
-0.00513 -0.02848 0.22055
0.05952 -0.04511 0.21102
-0.0162 -0.06097 0.2309
0.04785 -0.07368 0.21818
-0.02868 -0.08647 0.23615
0.04333 -0.09889 0.22162
-0.03346 -0.11419 0.23799
0.03475 -0.12123 0.22419
-0.04326 -0.14632 0.23616
0.02673 -0.15461 0.21834
-0.0551 -0.18457 0.23009
0.0182 -0.18936 0.20066
-0.07026 -0.21941 0.21639
0.00845 -0.20579 0.19398
-0.08082 -0.26257 0.18957
-0.00583 -0.24551 0.17932
-0.09172 -0.2904 0.16122
-0.01187 -0.27386 0.16245
-0.09438 -0.30504 0.13362
-0.02306 -0.29534 0.14696
-0.02791 -0.30727 0.12961
-0.03697 -0.33151 0.10384
-0.03841 -0.33822 0.07773
-0.10276 0.2416 0.04306
-0.09734 0.24882 0.01243
-0.04765 0.231 0.0138
-0.10563 0.23302 0.05704
-0.04977 0.22281 0.03877
-0.12027 0.22751 0.08501
-0.06062 0.21564 0.05746
-0.12176 0.2106 0.11762
-0.06148 0.20469 0.07765
-0.14263 0.18974 0.13665
-0.0564 0.18608 0.1034
-0.18687 0.18162 0.1479
-0.06789 0.1604 0.12858
-0.21344 0.13645 0.19777
-0.11854 0.12377 0.17156
-0.20511 0.05171 0.25042
-0.10316 0.02191 0.23321
-0.20237 0.00518 0.26942
-0.10016 -0.03102 0.25367
-0.20261 -0.05161 0.28507
-0.10681 -0.05706 0.26164
-0.22499 -0.12073 0.28682
-0.11626 -0.0938 0.26423
-0.23747 -0.1743 0.27661
-0.13457 -0.13627 0.26874
-0.24848 -0.21901 0.25231
-0.14972 -0.18859 0.25698
-0.26401 -0.24913 0.21981
-0.1752 -0.23422 0.23639
-0.26854 -0.26385 0.19541
-0.18973 -0.26434 0.20944
-0.19438 -0.28032 0.18424
-0.20241 0.28577 0.03166
-0.1945 0.28878 0.0098
-0.14686 0.26741 0.01107
-0.20755 0.2786 0.05507
-0.15424 0.26199 0.03598
-0.22178 0.2733 0.09406
-0.16637 0.25939 0.05899
-0.2323 0.26858 0.12875
-0.18118 0.25126 0.09974
-0.2477 0.25898 0.1576
-0.19192 0.23681 0.1356
-0.27863 0.24548 0.18093
-0.20923 0.22196 0.14461
-0.2935 0.20266 0.19675
-0.24602 0.19872 0.16432
-0.29167 0.15746 0.2109
-0.24563 0.16081 0.18991
-0.30025 0.10731 0.22891
-0.24699 0.1309 0.21457
-0.3268 0.06723 0.24223
-0.26375 0.06869 0.24704
-0.34541 0.01727 0.25289
-0.2709 0.0255 0.26235
-0.29426 -0.05588 0.28347
-0.336 -0.21437 0.2246
0.10591 -0.27673 0.2138
0.11461 -0.24773 0.22074
0.22026 0.15129 0.02139
0.21793 0.14424 0.05813
0.21844 0.13547 0.06907
0.21586 0.1222 0.08749
0.20908 0.10015 0.11772
0.20243 0.07578 0.14298
0.18165 -0.01685 0.19563
0.18896 0.01022 0.18302
0.17039 -0.07475 0.21195
0.16298 -0.10662 0.21796
0.15391 -0.13955 0.22297
0.14352 -0.17269 0.22574
0.1342 -0.20818 0.22913
0.01293 -0.32666 0.12246
0.03289 -0.33739 0.13625
0.00963 -0.34782 0.10524
0.02055 -0.36455 0.0097
0.00862 -0.35967 0.08147
0.06965 -0.38263 0.01106
0.02229 -0.31065 0.14687
0.04174 -0.26715 0.17757
0.07907 -0.21627 0.19663
0.05412 -0.27427 0.18115
0.03055 -0.29043 0.15921
-0.03703 -0.34756 0.00807
-0.3328 -0.23307 0.19387
-0.22543 0.29558 0.03111
-0.22043 0.30092 0.00911
-0.23329 0.28971 0.05299
-0.24048 0.28288 0.0961
-0.25009 0.28175 0.12778
-0.27439 0.27356 0.1701
-0.30621 0.25286 0.19062
-0.32443 0.20498 0.20085
-0.35838 0.1416 0.20376
-0.36744 0.10873 0.2088
-0.3786 0.08347 0.21625
-0.38975 0.04251 0.22856
-0.27438 0.31522 0.02772
-0.27062 0.32101 0.00774
-0.28198 0.31013 0.04835
-0.2884 0.30932 0.07903
-0.32558 0.2998 0.13958
-0.34929 0.26671 0.18124
-0.36044 0.2258 0.19359
-0.38258 0.17661 0.19497
-0.39903 0.13601 0.19916
-0.40491 0.11411 0.2062
-0.4007 0.08121 0.21758
-0.40558 0.04854 0.22724
-0.33524 0.34034 0.02887
-0.3298 0.34313 0.00611
-0.3404 0.33688 0.04375
-0.34925 0.33268 0.07725
-0.36341 0.31335 0.13835
-0.38404 0.27259 0.18313
-0.41396 0.23099 0.19659
-0.4298 0.18469 0.20104
-0.43488 0.14766 0.20621
-0.42828 0.1164 0.21184
-0.4238 0.08435 0.22195
-0.43315 0.05418 0.23408
-0.42369 0.38513 0.01475
-0.41582 0.38504 0.00385
-0.43008 0.38081 0.03966
-0.43429 0.37359 0.06871
-0.44139 0.36147 0.10312
-0.452 0.33437 0.14751
-0.46447 0.28271 0.18549
-0.46968 0.20946 0.20806
-0.47339 0.17939 0.21053
-0.4761 0.16323 0.21093
-0.48233 0.12007 0.21743
-0.48784 0.08281 0.22592
-0.49475 0.05243 0.22939
-0.48011 0.41499 0.01062
-0.4757 0.41942 0.00233
-0.48993 0.40061 0.03775
-0.49162 0.39628 0.06184
-0.50092 0.38879 0.09501
-0.50526 0.36639 0.131
-0.50734 0.33234 0.15659
-0.51141 0.27054 0.18644
-0.51349 0.21022 0.19954
-0.52297 0.16317 0.20127
-0.5331 0.1308 0.20279
-0.52741 0.09595 0.21143
-0.53831 0.04376 0.21868
-0.56968 0.39421 0.05173
-0.56536 0.39649 -0.00073
-0.54368 0.40139 0
-0.57716 0.37825 0.08377
-0.53814 0.40538 0.06328
-0.58249 0.35601 0.09974
-0.54921 0.39378 0.09179
-0.58553 0.32871 0.11485
-0.54763 0.37055 0.11397
-0.58996 0.29814 0.12404
-0.54761 0.34089 0.14093
-0.59825 0.2415 0.14361
-0.55499 0.30177 0.14974
-0.60761 0.17646 0.15949
-0.56848 0.23648 0.16107
-0.60984 0.14123 0.16997
-0.5735 0.17839 0.17671
-0.60593 0.10586 0.17971
-0.57536 0.13802 0.18952
-0.61436 0.04982 0.18695
-0.57412 0.10386 0.19767
-0.58397 0.04095 0.20758
-0.60842 0.39039 0.04683
-0.59926 0.39058 -0.00186
-0.6097 0.3689 0.0695
-0.61399 0.34982 0.08045
-0.61804 0.32302 0.09203
-0.625 0.29448 0.0984
-0.63107 0.24717 0.11141
-0.63663 0.19107 0.13541
-0.63722 0.14789 0.14676
-0.6423 0.10194 0.15178
-0.64683 0.04905 0.15635
-0.65152 0.00518 0.16094
-0.61641 0.35171 0.03233
-0.61186 0.36256 -0.00255
-0.61953 0.33883 0.04184
-0.62488 0.32024 0.04917
-0.62731 0.30118 0.05688
-0.63187 0.28322 0.05751
-0.63899 0.24492 0.0651
-0.64636 0.19191 0.0816
-0.65172 0.15051 0.0966
-0.65641 0.1052 0.11475
-0.65968 0.06824 0.11671
-0.66075 0.00076 0.12384
0.31195 0.1194 0.02393
-0.65891 0.07427 0.10429
-0.62283 0.2639 0.04394
-0.6263 0.24188 0.0423
-0.63705 0.19944 0.04838
-0.64975 0.15205 0.06546
-0.65493 0.11368 0.08415
-0.62677 0.25896 -0.0041
-0.60133 0.3373 -0.00248
-0.60916 0.31728 -0.00294
-0.61955 0.29309 -0.00352
-0.66163 0.30656 0.00487
-0.68117 0.22474 0.00265
-0.68289 0.22525 -0.00622
-0.63272 0.38008 0.00729
-0.66348 0.30714 -0.00475
-0.59123 0.42015 0.00976
-0.63461 0.38103 -0.00307
-0.54615 0.43552 0.01209
-0.59273 0.42202 -0.00132
-0.50747 0.43036 0.014
-0.54643 0.43828 0.00031
-0.65597 0.30519 0.01203
-0.67594 0.22353 0.00925
-0.62689 0.37769 0.015
-0.58643 0.41527 0.01796
-0.54466 0.42821 0.0207
-0.50834 0.42283 0.02308
-0.64802 0.3034 0.01483
-0.6686 0.22194 0.01183
-0.61869 0.3745 0.01799
-0.57963 0.40868 0.02107
-0.54234 0.41831 0.02383
-0.6399 0.30165 0.01251
-0.6611 0.22041 0.00969
-0.61031 0.37137 0.01546
-0.57264 0.40216 0.01826
-0.53982 0.40847 0.02065
-0.6338 0.30042 0.00569
-0.65546 0.21933 0.00341
-0.60401 0.36914 0.00809
-0.56734 0.39744 0.01029
-0.53778 0.40134 0.01201
-0.63134 0.30005 -0.0038
-0.6532 0.21901 -0.00534
-0.60146 0.3684 -0.00215
-0.53676 0.39881 0.00021
-0.50686 0.43321 0.0015
0.47439 0.09968 0.02315
-0.62467 0.27841 -0.00383
-0.71678 0.11681 -0.0116
-0.69657 0.16906 -0.00724
-0.68709 0.10591 -0.01079
-0.68501 0.10499 -0.00341
-0.66927 0.1633 -0.00645
-0.68753 0.10575 0.00384
-0.67134 0.1636 0.00156
-0.69397 0.108 0.00903
-0.67652 0.16459 0.00732
-0.70261 0.11112 0.01075
-0.68341 0.16601 0.00929
-0.71112 0.11429 0.00857
-0.69017 0.16747 0.00693
-0.71723 0.11665 0.00304
-0.69499 0.16859 0.00089
-0.71931 0.11757 -0.00435
-0.73268 -0.07789 0.05176
-0.73564 -0.0443 0.04468
-0.73614 -0.04783 0.07313
-0.73333 -0.01272 0.04285
-0.73166 -0.01547 0.06683
-0.72009 0.02225 0.04536
-0.71922 0.02078 0.06454
-0.69096 0.0788 0.04815
-0.68796 0.0782 0.06284
-0.66859 0.12207 0.05037
-0.663 0.11887 0.06583
-0.64999 0.15985 0.05029
-0.64942 0.16576 -0.00579
-0.63531 0.20432 -0.00494
-0.66852 0.1246 -0.00682
-0.71744 0.02405 -0.00941
-0.72898 -0.0081 -0.01011
-0.73576 -0.04352 -0.0107
-0.69281 0.07956 -0.00806
-0.67627 0.0789 0.08551
-0.7051 0.01577 0.09864
-0.71527 -0.02512 0.10217
-0.68423 0.01042 0.11229
-0.62897 0.23537 -0.00442
0.06076 -0.66128 0.18518
0.06302 -0.67487 0.18633
0.04251 -0.67432 0.19149
0.07204 -0.6992 0.19487
0.05155 -0.70229 0.20867
0.0781 -0.73026 0.20598
0.06165 -0.73247 0.21205
0.02549 -0.72142 0.20601
0.02466 -0.70088 0.20216
0.02439 -0.67388 0.18804
0.02343 -0.65644 0.18049
0.03909 -0.65297 0.18398
0.07153 -0.67825 0.17334
0.07139 -0.66209 0.17058
0.07818 -0.6678 0.15581
0.0116 -0.68085 0.18114
0.01292 -0.70475 0.1902
0.01376 -0.6626 0.17472
0.01048 -0.66982 0.14971
0.03393 -0.72814 0.15846
0.00579 -0.68732 0.15243
0.01315 -0.71448 0.15718
0.02655 -0.67486 0.12104
0.02122 -0.69696 0.12259
0.02634 -0.71408 0.12038
0.04439 -0.72469 0.12298
0.05261 -0.73421 0.1622
0.06294 -0.73022 0.12879
0.07366 -0.66694 0.14097
0.07783 -0.67886 0.1562
0.07795 -0.70006 0.18111
0.08763 -0.72524 0.19658
0.08487 -0.70452 0.16714
0.09418 -0.73528 0.17726
0.08326 -0.70225 0.14111
0.08682 -0.72763 0.14076
0.07692 -0.68235 0.14484
0.05056 -0.67083 0.11941
0.05128 -0.69439 0.11953
-0.73894 -0.05971 -0.02045
-0.73963 -0.09001 0.00601
-0.76486 -0.11278 0.00678
-0.80502 -0.12664 -0.01666
-0.79786 -0.13583 0.00532
-0.74944 0.06346 -0.0162
-0.75636 0.06586 -0.00781
-0.79447 0.02256 -0.01456
-0.82867 -0.01688 -0.017
-0.86409 -0.07169 -0.02447
-0.74778 0.06543 0.01418
-0.78451 0.01845 0.01646
-0.82627 -0.01712 0.004
-0.84663 -0.05889 0.00982
-0.87173 -0.09471 -0.00827
-0.89437 -0.13497 -0.0242
-0.74938 0.05486 0.01698
-0.78069 0.00197 0.02548
-0.81966 -0.04996 0.03093
-0.851 -0.09797 0.02076
-0.86839 -0.11458 0.00096
-0.88783 -0.13369 -0.02057
-0.75193 0.02812 0.02226
-0.77622 -0.0207 0.03625
-0.8046 -0.06244 0.03433
-0.82986 -0.10173 0.02529
-0.85377 -0.12119 0.00812
-0.88388 -0.13776 -0.0205
-0.72952 0.02604 0.01501
-0.75228 -0.02298 0.0289
-0.76891 -0.05036 0.03296
-0.81429 -0.09269 0.03201
-0.81984 -0.12256 0.01651
-0.84241 -0.14141 -0.00822
-0.86316 -0.14297 -0.01861
-0.70335 0.01213 -0.00314
0.55469 0.1076 0.03144
0.58087 -0.16789 0.02937
0.53783 -0.19387 0.02775
0.60485 0.12129 0.03315
0.79849 0.00291 0.038
0.76493 0.06073 0.03755
0.81338 -0.01956 0.03823
0.83644 -0.05581 0.03857
0.84122 -0.06565 0.03862
0.85944 -0.09741 0.03886
0.9045 -0.1588 0.03963
0.8911 -0.13192 0.03949
0.90064 -0.17069 0.03939
0.88964 -0.18472 0.03889
0.88341 -0.19388 0.0386
0.85413 -0.21486 0.03746
0.83552 -0.21774 0.03685
0.81964 -0.21277 0.0364
0.76306 -0.19072 0.03485
0.74635 -0.188 0.03436
0.78082 -0.19499 0.03537
0.80244 -0.20692 0.03592
0.71471 -0.18247 0.03342
0.67012 -0.17719 0.03208
0.62413 -0.1713 0.03069
0.78363 0.03052 0.03782
0.87912 -0.11984 0.03924
0.90018 -0.14319 0.03966
0.71223 0.12861 0.03661
0.73043 0.11112 0.03699
0.69307 0.1381 0.0361
0.73904 0.09853 0.03713
0.67392 0.13828 0.0355
0.65523 0.13015 0.03483
0.61876 0.12589 0.03364
0.55373 0.10438 0.0484
0.60394 0.11496 0.05795
0.57823 -0.17026 0.06003
0.53362 -0.18222 0.06877
0.54203 -0.19232 0.06067
0.57753 -0.16249 0.07909
0.53335 -0.16745 0.07964
0.57777 -0.14085 0.09605
0.5364 -0.15059 0.09239
0.58561 -0.10173 0.11265
0.5417 -0.11966 0.10521
0.59046 -0.05841 0.12033
0.5468 -0.06359 0.11544
0.58765 -0.01329 0.11496
0.5463 -0.0146 0.1093
0.59831 0.0207 0.11092
0.54948 0.02603 0.09877
0.59853 0.05636 0.10577
0.54956 0.05196 0.09479
0.60264 0.09703 0.08643
0.54691 0.07561 0.08353
0.60417 0.10716 0.07312
0.55112 0.09656 0.06113
0.75688 -0.01038 0.13693
0.75536 2.0E-5 0.14053
0.74198 -0.00693 0.13784
0.77858 0.01083 0.1325
0.76203 0.01078 0.14279
0.76404 0.00674 0.14014
0.78159 -0.00032 0.12594
0.78228 -0.01407 0.11806
0.78545 0.00142 0.12438
0.75638 -0.01649 0.13902
0.76898 -0.02285 0.13226
0.76703 -0.01888 0.13336
0.77685 -0.02463 0.12343
0.77681 -0.01961 0.12604
0.76082 -0.02798 0.13402
0.76906 -0.03285 0.12853
0.77359 -0.03013 0.12078
0.78188 -0.02064 0.11408
0.78363 0.00974 0.12054
0.77777 0.01701 0.12588
0.78849 -0.00497 0.1174
0.77244 0.02047 0.12695
0.76323 0.02245 0.13267
0.7603 0.02844 0.13513
0.74863 0.01844 0.1418
0.77437 0.03112 0.1276
0.78308 0.02785 0.12348
0.79241 0.01605 0.11563
0.7958 -0.003 0.11284
0.79346 -0.01997 0.11123
0.78246 -0.02916 0.11029
0.77259 -0.03776 0.12144
0.76235 -0.03858 0.12888
0.75214 -0.0347 0.13442
0.75306 -0.02196 0.13637
0.74638 -0.02294 0.1363
0.79454 -0.02238 0.10535
0.79987 -0.01142 0.10451
0.78492 -0.03675 0.1064
0.77603 -0.04247 0.11737
0.75665 -0.04646 0.12645
0.74795 -0.0432 0.13052
0.73252 -0.03131 0.13367
0.79878 0.00047 0.10804
0.79685 0.01409 0.10979
0.78609 0.03125 0.11869
0.77774 0.03621 0.12567
0.745 0.01909 0.13841
0.76323 0.03199 0.13183
0.73906 -0.00584 0.13918
0.72631 -0.02141 0.13115
0.75513 0.04095 0.12929
0.77314 0.04509 0.11717
0.78156 0.03987 0.10715
0.79428 0.02338 0.09524
0.7997 0.00504 0.08938
0.80014 -0.01249 0.09244
0.7967 -0.02715 0.09521
0.731 -0.00655 0.13599
0.77486 0.04992 0.08483
0.76161 0.06038 0.09883
0.79093 0.02454 0.07528
0.8015 0.00309 0.07281
0.8049 -0.01565 0.07305
0.80269 -0.03476 0.08536
0.79338 -0.05194 0.09272
0.78344 -0.06492 0.10886
0.75776 -0.07786 0.12009
0.72686 -0.07307 0.12962
0.74809 -0.07753 0.12289
0.71528 -0.06421 0.13163
0.70669 -0.03734 0.13055
0.73916 0.02285 0.13664
0.70716 -0.00219 0.1305
0.71191 0.02194 0.13153
0.74303 0.05992 0.11516
0.72401 0.0432 0.12687
0.81002 -0.01701 0.05806
0.81214 -0.04232 0.07102
0.80272 -0.06863 0.0838
0.79476 -0.10019 0.09702
0.70618 -0.07235 0.13214
0.69606 -0.04008 0.1321
0.69701 -0.05632 0.13356
0.70574 -0.01156 0.12824
0.68744 -0.02261 0.13336
0.69037 0.00984 0.13055
0.6981 0.0328 0.12869
0.75001 0.07723 0.0605
0.74143 0.08323 0.07955
0.72055 0.07825 0.10996
0.70034 0.06131 0.11405
0.78936 -0.11089 0.1009
0.77199 -0.12877 0.10514
0.73959 -0.11835 0.1187
0.71533 -0.08849 0.12922
0.82824 -0.04877 0.05824
0.83832 -0.07137 0.05897
0.82252 -0.09175 0.07869
0.82842 -0.07984 0.07166
0.80876 -0.11167 0.09231
0.79857 -0.1224 0.09608
0.7857 -0.14226 0.09448
0.78074 -0.15141 0.09973
0.74149 -0.13183 0.11844
0.70377 -0.10842 0.13222
0.69214 -0.09453 0.13683
0.67912 -0.07059 0.14047
0.67195 -0.04419 0.13952
0.68938 -0.00732 0.13205
0.67738 -0.00478 0.1331
0.68117 0.01158 0.13324
0.85994 -0.10282 0.0577
0.851 -0.10841 0.07015
0.84164 -0.11573 0.0797
0.82752 -0.12786 0.08962
0.81597 -0.1382 0.09177
0.80681 -0.15097 0.09418
0.80244 -0.15911 0.0948
0.87344 -0.12691 0.07381
0.87714 -0.1229 0.05987
0.87046 -0.11441 0.05741
0.85796 -0.12912 0.08126
0.84763 -0.13931 0.0911
0.86593 -0.1378 0.08677
0.85717 -0.1487 0.09364
0.84943 -0.16677 0.09656
0.83615 -0.14992 0.09021
0.87047 -0.11221 0.03905
0.8673 -0.12191 0.07017
0.83556 -0.16052 0.09569
0.8163 -0.16516 0.09722
0.89565 -0.14286 0.06812
0.90009 -0.14482 0.06234
0.89101 -0.13384 0.06116
0.90732 -0.15707 0.06053
0.90135 -0.15435 0.06927
0.8855 -0.13436 0.07169
0.87654 -0.14464 0.08612
0.88522 -0.15266 0.08247
0.89453 -0.16922 0.07498
0.90549 -0.17276 0.05733
0.88644 -0.19727 0.05144
0.88282 -0.20148 0.0639
0.89356 -0.18986 0.05395
0.87051 -0.20264 0.07739
0.8781 -0.19381 0.07984
0.86536 -0.18697 0.09111
0.88992 -0.19388 0.06795
0.89511 -0.18263 0.07013
0.88527 -0.18647 0.08091
0.87455 -0.17898 0.08911
0.8687 -0.16237 0.09206
0.87023 -0.1534 0.0898
0.84511 -0.18452 0.09654
0.85861 -0.18768 0.09407
0.84843 -0.17904 0.09919
0.83399 -0.174 0.10146
0.80966 -0.1807 0.09538
0.84136 -0.19148 0.09401
0.82876 -0.18047 0.09886
0.81834 -0.18866 0.09323
0.82646 -0.18803 0.09492
0.80205 -0.18494 0.09103
0.80395 -0.17416 0.09317
0.80787 -0.19188 0.08872
0.7972 -0.17023 0.09417
0.78867 -0.19493 0.07026
0.79248 -0.18007 0.09187
0.8094 -0.20551 0.06562
0.81725 -0.19917 0.07741
0.82337 -0.21196 0.06346
0.83125 -0.20576 0.07376
0.83929 -0.21774 0.05822
0.84952 -0.20894 0.07141
0.77503 -0.16394 0.09922
0.77789 -0.18742 0.07852
0.76887 -0.17342 0.0953
0.85579 -0.21762 0.04948
0.86566 -0.20917 0.03788
0.86666 -0.21278 0.05536
0.81745 -0.21285 0.04818
0.79914 -0.20464 0.05308
0.76747 -0.194 0.05297
0.78462 -0.19933 0.05839
0.77008 -0.19389 0.06519
0.76241 -0.18009 0.08513
0.74862 -0.19207 0.05842
0.7199 -0.1873 0.05733
0.75122 -0.19196 0.0707
0.72509 -0.18719 0.08028
0.67795 -0.17876 0.08762
0.73111 -0.17228 0.09133
0.68584 -0.16272 0.10005
0.73976 -0.14792 0.11065
0.73563 -0.16653 0.10153
0.69668 -0.13534 0.12683
0.69168 -0.15234 0.11449
0.67339 -0.11208 0.13945
0.65592 -0.12795 0.12829
0.63264 -0.14999 0.0962
0.63863 -0.13984 0.1076
0.62701 -0.13085 0.11109
0.67035 -0.18139 0.06328
0.61962 -0.1711 0.0582
0.61439 -0.16446 0.07877
0.60383 -0.14017 0.09772
0.66044 -0.0884 0.14012
0.61951 -0.13518 0.10525
0.59965 -0.11179 0.11339
0.62438 -0.10811 0.12275
0.62222 -0.06001 0.13367
0.60524 -0.06488 0.12154
0.64084 -0.10452 0.13654
0.63501 -0.05901 0.13999
0.65218 -0.05011 0.14259
0.67444 -0.02281 0.13613
0.66094 -0.01476 0.13966
0.6658 0.00408 0.13511
0.67169 0.02088 0.12914
0.65439 0.00274 0.13035
0.64577 -0.01353 0.13159
0.62755 -0.01556 0.12985
0.61722 -0.01926 0.12083
0.63956 0.00591 0.12823
0.62777 0.00765 0.12019
0.71499 0.12586 0.05994
0.72941 0.11123 0.05857
0.71337 0.12713 0.06896
0.72603 0.10942 0.08149
0.71454 0.1276 0.07962
0.69108 0.13537 0.05855
0.69312 0.13422 0.07242
0.6949 0.13581 0.07994
0.72346 0.10756 0.08765
0.72614 0.09298 0.09662
0.65653 0.11032 0.10109
0.66505 0.1286 0.08444
0.67348 0.13755 0.07168
0.67523 0.13438 0.07961
0.66189 0.13223 0.07644
0.65207 0.11867 0.08658
0.65624 0.11289 0.09175
0.66289 0.1343 0.03511
0.62452 0.10454 0.09481
0.64176 0.10853 0.09635
0.6522 0.10699 0.10129
0.65704 0.09557 0.11919
0.63824 0.09742 0.12315
0.61391 0.08124 0.11947
0.62639 0.09459 0.11857
0.66419 0.0982 0.12212
0.64414 0.09335 0.13732
0.66106 0.09056 0.1334
0.62886 0.09034 0.13573
0.61931 0.08054 0.13332
0.64802 0.08889 0.15764
0.66538 0.08739 0.15206
0.62621 0.07458 0.14774
0.63715 0.08404 0.15171
0.67784 0.08806 0.13251
0.68911 0.07707 0.12307
0.67626 0.08431 0.13886
0.67043 0.08989 0.16412
0.67848 0.08255 0.14668
0.6534 0.08844 0.17453
0.64103 0.07933 0.16894
0.67913 0.09486 0.18217
0.68676 0.08579 0.16181
0.65887 0.09237 0.18648
0.64653 0.07848 0.18137
0.67063 0.10363 0.2162
0.65798 0.09256 0.20472
0.6473 0.0837 0.2296
0.67817 0.10486 0.2026
0.69449 0.09278 0.18121
0.68996 0.10312 0.21064
0.68449 0.10712 0.21777
0.67582 0.11358 0.24134
0.66141 0.11224 0.26396
0.65955 0.10294 0.2404
0.64916 0.10123 0.27532
0.64908 0.09327 0.25624
0.64457 0.08084 0.20239
0.63215 0.07038 0.16041
0.63687 0.06908 0.18347
0.63696 0.07196 0.19995
0.63143 0.04744 0.21116
0.63478 0.06584 0.23395
0.64626 0.07329 0.27467
0.64277 0.05078 0.25986
0.64235 0.02174 0.23653
0.63014 0.04422 0.18552
0.60896 0.08323 0.10395
0.61546 0.05133 0.11298
0.6219 0.04841 0.12406
0.63765 0.02912 0.12919
0.62493 0.05025 0.13919
0.63036 0.04967 0.15459
0.64115 0.01479 0.18532
0.63713 0.01688 0.214
0.68869 0.05138 0.12078
0.68573 0.05749 0.12472
0.67994 0.04493 0.12421
0.6681 0.10349 0.26339
0.66194 0.08937 0.26144
0.66752 0.08961 0.24782
0.6658 0.09592 0.25939
0.66174 0.08689 0.24949
0.67675 0.10211 0.24237
0.67433 0.09494 0.24295
0.67271 0.08799 0.2298
0.68278 0.07159 0.14775
0.67682 0.05666 0.13676
0.698 0.06384 0.17468
0.69195 0.08948 0.20883
0.68387 0.09671 0.22473
0.67861 0.09526 0.22474
0.68614 0.07377 0.18875
0.70051 0.07853 0.18866
0.68162 0.06313 0.17742
0.68615 0.08664 0.20895
0.68856 0.04881 0.16818
0.67423 0.08408 0.20735
0.67358 0.07511 0.1929
0.67898 0.05362 0.16753
0.66678 0.0665 0.17678
0.65596 0.05644 0.16675
0.65611 0.05924 0.18173
0.65764 0.06641 0.19792
0.65996 0.07242 0.22177
0.66153 0.07946 0.23641
0.65021 0.05197 0.1868
0.64831 0.05431 0.20788
0.65165 0.06288 0.22854
0.65513 0.07091 0.24314
0.64488 0.03476 0.20954
0.6487 0.04504 0.23305
0.64879 0.05745 0.24874
0.65238 0.07492 0.26094
0.65415 0.08115 0.26654
0.66082 0.09185 0.26725
0.66035 0.02417 0.12253
0.67135 0.03336 0.12347
0.67468 0.04521 0.16512
0.68675 0.04271 0.16412
0.66662 0.03968 0.16243
0.64925 0.03467 0.18681
0.77661 0.00521 0.13451
0.75397 0.01473 0.1377
0.65638 0.09382 0.27309
0.63133 0.02656 0.11098
0.62168 0.11651 0.07235
0.85439 -0.1963 0.08868
0.87525 -0.19912 0.03829
0.77754 -0.01115 0.13442
0.77168 -0.00389 0.13975
0.76685 -0.00379 0.14113
0.77369 -0.01277 0.13753
0.76977 -0.00977 0.13873
0.77614 -0.00573 0.13547
0.87826 -0.20251 0.05172
0.87382 -0.20519 0.05947
0.85284 -0.20352 0.0725
0.88656 -0.17527 0.06622
0.87978 -0.1712 0.06876
0.87979 -0.16625 0.06983
0.87583 -0.15824 0.07358
0.8394 -0.20038 0.07497
0.82349 -0.19485 0.07717
0.71639 0.08248 0.12472
0.69516 0.08695 0.13145
-0.40865 -0.24506 0.11675
-0.41288 -0.2487 0.09196
-0.41389 -0.24857 0.07199
-0.62541 -0.18316 0.11567
-0.64634 -0.18971 0.14348
-0.60998 -0.15798 0.15598
-0.6654 -0.20332 0.15652
-0.62385 -0.15745 0.17152
-0.67936 -0.19553 0.16925
-0.63862 -0.15018 0.17658
-0.69534 -0.18725 0.1729
-0.65063 -0.1375 0.17827
-0.71165 -0.17609 0.16915
-0.66451 -0.12295 0.1717
-0.74743 -0.1507 0.13765
-0.74804 -0.1503 0.1143
-0.7157 -0.11249 0.10084
-0.70164 -0.09631 0.11004
-0.6999 -0.09733 0.13686
-0.71343 -0.11383 0.13661
-0.73804 -0.29335 0.16221
-0.72597 -0.2489 0.16126
-0.70771 -0.25159 0.15973
-0.71601 -0.22276 0.1667
-0.6968 -0.22901 0.16503
-0.7216 -0.2197 0.16565
-0.75227 -0.28986 0.15603
-0.74344 -0.24748 0.15315
-0.73872 -0.209 0.15427
-0.72963 -0.16582 0.15008
-0.76748 -0.28626 0.14424
-0.76013 -0.24187 0.14413
-0.758 -0.20264 0.14156
-0.72467 -0.29732 0.16067
-0.6984 -0.25633 0.15155
-0.68345 -0.2311 0.15204
-0.66309 -0.21179 0.13551
-0.68694 -0.23734 0.13121
-0.70362 -0.26133 0.13475
-0.71662 -0.29195 0.13675
-0.71387 -0.29512 0.1498
-0.67531 -0.21227 0.11827
-0.6967 -0.23629 0.1226
-0.70921 -0.23227 0.11532
-0.72235 -0.25885 0.12517
-0.6897 -0.20283 0.10846
-0.70707 -0.17907 0.10504
-0.72898 -0.22214 0.11385
-0.73685 -0.25432 0.1232
-0.74922 -0.28879 0.12837
-0.73083 -0.29017 0.12767
-0.73269 -0.1667 0.10375
-0.687 -0.15705 0.09559
-0.70758 -0.13187 0.09602
-0.75223 -0.20286 0.11551
-0.75281 -0.2478 0.12393
-0.75794 -0.28479 0.12904
-0.75954 -0.20228 0.12703
-0.76589 -0.24849 0.12986
-0.77088 -0.28417 0.13579
-0.71239 -0.12282 0.14211
-0.37535 -0.13407 0.24051
-0.42596 -0.04553 0.21401
-0.42864 -0.08438 0.19324
-0.43323 -0.113 0.17657
-0.4559 -0.03296 0.21018
-0.46961 -0.06794 0.18226
-0.47437 -0.08707 0.16776
-0.47421 -0.09288 0.15698
-0.44035 -0.12333 0.15427
-0.39142 -0.19522 0.14911
-0.40316 -0.18349 0.14665
-0.50257 -0.04608 0.20698
-0.51701 -0.08344 0.18293
-0.52249 -0.09733 0.16876
-0.52797 -0.11121 0.1546
-0.53365 -0.05888 0.20362
-0.57487 -0.11286 0.18726
-0.56769 -0.05914 0.20366
-0.6002 -0.10517 0.19041
-0.65066 -0.05028 0.1686
-0.66833 -0.08977 0.15702
-0.62266 -0.06079 0.19499
-0.68197 -0.11109 0.15016
-0.64292 -0.09952 0.17971
-0.68363 -0.07004 0.14252
-0.56238 -0.13275 0.15415
-0.59286 -0.15824 0.1395
-0.64157 -0.19169 0.10896
-0.77701 -0.32781 0.16154
-0.7676 -0.32989 0.16585
-0.77113 -0.36041 0.17171
-0.74644 -0.33045 0.15723
-0.73162 -0.33184 0.15946
-0.73011 -0.36198 0.1666
-0.72544 -0.33365 0.14697
-0.72361 -0.36476 0.14996
-0.78444 -0.35883 0.1717
-0.78724 -0.36779 0.16925
-0.77899 -0.38216 0.16755
-0.79448 -0.38185 0.16993
-0.7796 -0.3899 0.16268
-0.7204 -0.3876 0.15105
-0.72579 -0.38974 0.16669
-0.76276 -0.3593 0.17413
-0.75538 -0.32804 0.15915
-0.79662 -0.38339 0.14145
-0.78198 -0.39535 0.14619
-0.76296 -0.39405 0.12924
-0.7894 -0.3821 0.1239
-0.77654 -0.36296 0.12565
-0.77126 -0.32353 0.13108
-0.78055 -0.32968 0.14523
-0.79072 -0.36333 0.14594
-0.74571 -0.3852 0.16896
-0.74987 -0.35791 0.16678
-0.76137 -0.38438 0.17347
-0.76963 -0.38423 0.17185
-0.73086 -0.35516 0.13628
-0.72743 -0.3866 0.1394
-0.76069 -0.36295 0.11991
-0.7412 -0.38516 0.12839
-0.74172 -0.35642 0.12607
-0.74442 -0.32893 0.12609
-0.75148 -0.32514 0.1269
-0.7297 -0.33482 0.13818
-0.65404 -0.18034 0.08844
-0.68252 -0.06729 0.1209
-0.49924 -0.12282 0.157
-0.48371 -0.12246 0.15678
-0.5442 -0.1439 0.15466
-0.51603 -0.15162 0.15393
-0.49642 -0.15581 0.15175
-0.45257 -0.16363 0.1487
-0.44227 -0.1684 0.14611
-0.56776 -0.17394 0.14041
-0.5366 -0.18216 0.13999
-0.51005 -0.19447 0.13241
-0.46265 -0.19463 0.13663
-0.46651 -0.20658 0.12487
-0.44535 -0.19019 0.14113
-0.43007 -0.19413 0.13644
-0.43087 -0.21909 0.1191
-0.44751 -0.21189 0.12736
-0.42415 -0.2386 0.0977
-0.43996 -0.22231 0.0972
-0.42962 -0.23593 0.08015
-0.44003 -0.23942 0.05596
-0.44428 -0.23943 -0.00359
-0.46031 -0.24138 -0.00411
-0.47341 -0.24052 0.06294
-0.48083 -0.22175 0.09604
-0.58991 -0.19516 0.11203
-0.55332 -0.21301 0.10311
-0.51624 -0.22221 0.1033
-0.66567 -0.1716 -0.00984
-0.68408 -0.16088 0.06134
-0.70898 -0.13365 0.06214
-0.70032 -0.13678 -0.01056
-0.67932 -0.15813 -0.01012
-0.66208 -0.18208 0.06359
-0.72924 -0.40924 0.18658
-0.72636 -0.42303 0.18775
-0.74877 -0.42186 0.19285
-0.71575 -0.44789 0.19633
-0.738 -0.45041 0.21008
-0.70816 -0.47946 0.20748
-0.72603 -0.4812 0.21352
-0.76588 -0.46894 0.20737
-0.76742 -0.44816 0.20351
-0.76858 -0.42086 0.18936
-0.77017 -0.40321 0.18179
-0.75317 -0.40019 0.18532
-0.717 -0.4267 0.17478
-0.71765 -0.41037 0.17201
-0.7101 -0.41633 0.15726
-0.78234 -0.42751 0.18242
-0.78016 -0.4517 0.19151
-0.78055 -0.40914 0.176
-0.78398 -0.4163 0.15098
-0.75657 -0.47594 0.15985
-0.78857 -0.43385 0.15371
-0.77969 -0.4615 0.1585
-0.76635 -0.42187 0.12236
-0.7715 -0.44402 0.12392
-0.76539 -0.46147 0.12173
-0.74535 -0.47274 0.12438
-0.73598 -0.48264 0.16363
-0.72491 -0.4789 0.13025
-0.71511 -0.41531 0.14241
-0.71015 -0.4275 0.15766
-0.70931 -0.44894 0.18258
-0.69793 -0.47468 0.1981
-0.70166 -0.45363 0.16863
-0.69053 -0.48499 0.17881
-0.70355 -0.45127 0.1426
-0.69889 -0.47702 0.14228
-0.71107 -0.43098 0.1463
-0.74026 -0.41852 0.12079
-0.73876 -0.44234 0.12093
-0.72721 -0.0855 -0.01087
-0.71743 -0.11105 -0.01083
-0.4112 -0.25252 -0.00269
0.49502 -0.21903 0.02614
0.517 0.10322 0.03021
-0.72284 -0.10887 0.05645
-0.73014 -0.08018 0.08338
-0.38459 -0.25173 0.11219
-0.37706 -0.24106 0.1311
-0.39215 -0.2552 0.09045
-0.39866 -0.25567 0.07801
-0.41129 -0.25277 0.05551
-0.66708 -0.03518 0.12757
-0.71649 -0.05896 0.1046
-0.68428 -0.03295 0.11815
0.4947 -0.22033 0.05545
0.49262 -0.12897 0.10209
0.49022 -0.16891 0.0915
0.4904 -0.18015 0.08649
0.49238 -0.1926 0.0774
0.49297 -0.20532 0.06616
0.51254 0.04687 0.08592
0.51008 0.01933 0.0956
0.5134 -0.02066 0.10422
0.50596 -0.07176 0.10923
0.51378 0.10157 0.0421
0.51455 0.09531 0.05463
0.50912 0.06821 0.07841
-0.37084 -0.2222 0.1458
-0.66737 -0.04101 0.15102
-0.62979 0.00028 0.18224
-0.59731 -0.00248 0.20712
-0.36591 -0.09388 0.2581
-0.38805 -0.16065 0.21618
-0.39349 -0.17706 0.1833
-0.32514 -0.13751 0.27217
-0.33608 -0.18095 0.24866
-0.54719 -0.0004 0.21868
-0.43031 0.00196 0.22784
-0.47297 -0.00146 0.23142
-0.50572 0.00216 0.22514
-0.40756 -0.00688 0.23249
0.2413 -0.30052 -0.12224
0.21808 -0.30908 -0.12991
0.20176 -0.32485 -0.12734
0.26372 -0.29949 -0.10649
0.23039 -0.33143 -0.11693
0.27652 -0.31117 -0.08739
0.24889 -0.33426 -0.10549
0.24134 -0.35334 -0.10048
0.27262 -0.33854 -0.07454
0.21954 -0.35263 -0.11024
0.18661 -0.34405 -0.12121
0.21029 -0.36322 -0.1063
0.19917 -0.37727 -0.09662
0.17884 -0.35541 -0.11529
0.1844 -0.3971 -0.07962
0.16724 -0.37284 -0.1054
0.22632 -0.38309 -0.08819
0.23258 -0.396 -0.07275
0.21467 -0.40153 -0.07415
0.24849 -0.38392 -0.06965
0.23645 -0.36598 -0.09602
0.28425 -0.32491 -0.06994
0.27732 -0.36995 -0.06054
0.3014 -0.34864 -0.04621
0.26346 -0.36658 -0.07294
0.27624 -0.39694 -0.05533
0.29083 -0.37534 -0.04866
0.26214 -0.40674 -0.06006
0.2447 -0.4186 -0.06315
0.21802 -0.42137 -0.06487
0.20324 -0.41711 -0.0671
0.17721 -0.40518 -0.07394
0.1521 -0.39306 -0.09513
0.30298 -0.38031 -0.03336
0.31639 -0.35592 -0.02815
0.28734 -0.40907 -0.03747
0.27117 -0.42199 -0.04192
0.24908 -0.43441 -0.04397
0.21774 -0.43667 -0.04895
0.19437 -0.42891 -0.05021
0.17093 -0.41953 -0.05768
0.14099 -0.4087 -0.07919
0.33528 -0.23704 -0.07495
0.3141 -0.24985 -0.08926
0.32853 -0.28077 -0.06634
0.34877 -0.27388 -0.0502
0.32517 -0.30534 -0.05164
0.31608 -0.28953 -0.07191
0.29769 -0.27428 -0.0923
0.28636 -0.28697 -0.0922
0.28575 -0.27539 -0.11467
0.33402 -0.3208 -0.03683
0.33879 -0.33303 -0.02339
0.35253 -0.32416 -0.02334
0.34853 -0.30841 -0.03364
-0.35862 -0.2645 -0.12182
-0.32763 -0.24602 -0.14918
-0.3612 -0.27254 -0.115
-0.34317 -0.28125 -0.12836
-0.31868 -0.29126 -0.12769
-0.26538 -0.2788 -0.15111
-0.27956 -0.30479 -0.13236
-0.29663 -0.2954 -0.13543
-0.25525 -0.3061 -0.13496
-0.18966 -0.29831 -0.13973
-0.20584 -0.32651 -0.08941
-0.19791 -0.31418 -0.1294
-0.2786 -0.30962 -0.09266
-0.34638 -0.28437 -0.08373
-0.36602 -0.27405 -0.07997
-0.34781 -0.28951 -0.06291
-0.27855 -0.31716 -0.06357
-0.10065 -0.31831 -0.10518
-0.21161 -0.33175 -0.06084
-0.10911 -0.33505 -0.06075
0.03771 -0.58044 -0.14899
0.02889 -0.57873 -0.14521
0.02187 -0.60944 -0.15647
0.07017 -0.58154 -0.14048
0.05652 -0.58061 -0.13912
0.05322 -0.6077 -0.14945
0.07502 -0.58345 -0.12768
0.07117 -0.61121 -0.14817
0.01893 -0.61844 -0.1544
0.034 -0.61064 -0.15572
0.01196 -0.63255 -0.15582
0.02598 -0.63249 -0.15251
0.02492 -0.64028 -0.14786
0.07842 -0.63666 -0.13263
0.07604 -0.61414 -0.13123
0.04852 -0.57843 -0.14153
0.04183 -0.60927 -0.1576
0.01445 -0.61463 -0.13125
0.00825 -0.63475 -0.12756
0.02159 -0.6461 -0.13166
0.01382 -0.63366 -0.10958
0.02462 -0.58103 -0.12919
0.03243 -0.57499 -0.11438
0.02621 -0.61432 -0.11013
0.05642 -0.63458 -0.15198
0.07438 -0.63858 -0.1486
0.0424 -0.63409 -0.15741
0.03474 -0.63419 -0.15628
0.06884 -0.60513 -0.11781
0.04035 -0.61401 -0.10345
0.038 -0.64467 -0.11357
0.05825 -0.60689 -0.10831
0.05809 -0.6353 -0.11122
0.07131 -0.63612 -0.1214
0.05652 -0.57973 -0.10789
0.05022 -0.57615 -0.10905
0.09959 -0.50547 -0.13747
0.07841 -0.54075 -0.13877
0.08178 -0.54186 -0.12803
0.11287 -0.48022 -0.13976
0.10668 -0.50356 -0.12365
0.12964 -0.43397 -0.13892
0.1179 -0.48191 -0.12364
0.14137 -0.40689 -0.1474
0.13503 -0.43309 -0.12427
0.04702 -0.53403 -0.1436
0.03619 -0.53544 -0.13955
0.054 -0.49905 -0.14898
0.04377 -0.49711 -0.14515
0.06427 -0.47329 -0.15122
0.05021 -0.46547 -0.15026
0.0794 -0.42648 -0.15568
0.05568 -0.42184 -0.15335
0.07765 -0.39716 -0.1636
0.06048 -0.39121 -0.15758
0.03401 -0.49295 -0.13738
0.03453 -0.46137 -0.13809
0.04628 -0.41559 -0.14504
0.05073 -0.38758 -0.14778
0.03192 -0.53555 -0.1318
0.03623 -0.49285 -0.12183
0.03692 -0.46053 -0.12126
0.03956 -0.41564 -0.12289
0.04818 -0.37656 -0.10615
0.03464 -0.53053 -0.12279
0.04928 -0.49239 -0.10626
0.05226 -0.46522 -0.10476
0.06334 -0.40699 -0.10299
0.0701 -0.38735 -0.09237
0.06779 -0.53821 -0.14586
0.12369 -0.40892 -0.15788
0.11731 -0.43032 -0.15343
0.09682 -0.48014 -0.15523
0.08437 -0.51083 -0.14991
0.05714 -0.53725 -0.14668
0.10549 -0.39509 -0.16866
0.09823 -0.42348 -0.1583
0.08298 -0.48004 -0.15518
0.06888 -0.5112 -0.15102
0.05087 -0.52929 -0.10811
0.08935 -0.39287 -0.0883
0.08802 -0.40787 -0.09881
0.06887 -0.46932 -0.09587
0.06442 -0.49625 -0.0973
0.07056 -0.58491 -0.1192
0.06047 -0.53799 -0.10259
0.08122 -0.53869 -0.11176
0.12755 -0.40524 -0.08904
0.12398 -0.43179 -0.09605
0.10283 -0.47141 -0.10044
0.14548 -0.40552 -0.12931
0.09188 -0.49248 -0.10432
0.17572 -0.3582 -0.14152
0.16341 -0.37913 -0.13471
0.16844 -0.35982 -0.16076
0.15594 -0.38207 -0.15316
0.14969 -0.34772 -0.17747
0.13789 -0.3862 -0.16418
0.12225 -0.34562 -0.18024
0.11127 -0.37652 -0.17493
0.09042 -0.3341 -0.17715
0.08026 -0.36989 -0.17093
0.07266 -0.33204 -0.16887
0.06674 -0.35981 -0.16607
0.0609 -0.33151 -0.15873
0.05771 -0.35316 -0.15103
0.04796 -0.32451 -0.12924
0.0408 -0.33476 -0.11523
0.18715 -0.34321 -0.1465
0.18436 -0.33766 -0.16163
0.16691 -0.32654 -0.17982
0.13717 -0.31879 -0.18548
0.10663 -0.30881 -0.18175
0.08539 -0.3085 -0.17718
0.07045 -0.30767 -0.17031
0.05003 -0.2995 -0.14047
0.20325 -0.31864 -0.15233
0.11137 -0.289 -0.18325
0.15039 -0.29406 -0.18572
0.17959 -0.30573 -0.17772
0.19385 -0.31491 -0.16909
0.07753 -0.28172 -0.17576
0.06475 -0.27072 -0.15737
0.0947 -0.28708 -0.18386
0.47639 0.08943 0.00061
0.4732 0.06637 -0.02089
0.47056 0.04287 -0.02811
0.46798 0.01932 -0.0353
0.46123 -0.02749 -0.04964
0.44986 -0.07641 -0.05676
0.44353 -0.1436 -0.05755
0.43713 -0.18423 -0.05259
0.4376 -0.20224 -0.04396
0.43548 -0.21776 -0.03468
0.4363 -0.24567 -0.01863
0.44586 -0.25594 -0.00692
0.40506 -0.28828 -0.01082
0.36264 0.10148 -0.00828
0.42146 0.09263 -0.00073
0.36426 0.08024 -0.03149
0.41832 0.06951 -0.0222
0.37403 0.04945 -0.04502
0.41679 0.04426 -0.0321
0.36948 0.01605 -0.06035
0.41497 0.01693 -0.04249
0.3691 -0.03022 -0.07234
0.40676 -0.0296 -0.05672
0.37079 -0.08393 -0.0785
0.40551 -0.08336 -0.06071
0.36836 -0.12544 -0.08594
0.40346 -0.14991 -0.07128
0.37179 -0.16104 -0.08518
0.36534 -0.19159 -0.08424
0.40336 -0.18946 -0.06601
0.35886 -0.22699 -0.06458
0.39982 -0.21475 -0.05267
0.39557 -0.24418 -0.04032
0.40105 -0.27203 -0.02322
0.35927 -0.08408 -0.09626
0.35592 -0.13305 -0.09565
0.3524 -0.16359 -0.09693
0.34329 -0.19111 -0.09738
0.32689 -0.2161 -0.09828
0.34295 0.01779 -0.07533
0.34439 -0.02504 -0.0931
0.3487 -0.02813 -0.08837
0.2747 -0.27109 -0.13682
0.30661 -0.25063 -0.11605
0.28948 -0.25398 -0.14349
0.31726 -0.22444 -0.1115
0.30265 -0.22088 -0.14156
0.33489 -0.18879 -0.12222
0.322 -0.18523 -0.14897
0.34398 -0.16023 -0.12591
0.3341 -0.15878 -0.14658
0.34898 -0.13154 -0.11849
0.33806 -0.11809 -0.13713
0.34984 -0.07356 -0.1046
0.34535 -0.07014 -0.11478
0.3536 -0.02788 -0.08391
0.32597 0.11166 -0.00562
0.32948 0.09328 -0.03249
0.33583 0.04712 -0.06667
0.23378 -0.29173 -0.15095
0.21169 -0.30526 -0.14888
0.31477 0.11059 -0.01137
0.31707 0.1016 -0.03031
0.32184 0.0641 -0.0622
0.3244 0.02957 -0.08667
0.32691 -0.0071 -0.10281
0.32114 -0.05425 -0.12945
0.31645 -0.09633 -0.15029
0.30971 -0.14255 -0.16671
0.29586 -0.1877 -0.17394
0.27728 -0.21816 -0.16963
0.26736 -0.24133 -0.16895
0.24799 -0.26954 -0.15521
0.18671 -0.26102 -0.18167
0.27488 0.12869 -0.00661
0.21795 -0.21784 -0.19155
0.23117 -0.19256 -0.19392
0.23901 -0.17198 -0.19636
