# .PCD v0.7 - Point Cloud Data file format
VERSION 0.7
FIELDS x y z
SIZE 4 4 4
TYPE F F F
COUNT 1 1 1
WIDTH 1371
HEIGHT 1
VIEWPOINT 0 0 0 1 0 0 0
POINTS 1371
DATA ascii
0.053717501 -0.0023570601 -0.014768
0.053717501 -0.0019563399 -0.013891
0.05528 -0.0023570601 -0.0143342
0.0584107 -0.0039172801 -0.0152494
-0.151779 -0.000794589 -0.013891
-0.15097 -0.000794589 -0.0130665
-0.15097 -0.00162917 -0.013891
0.0388055 -0.0081694704 -0.0126147
0.0115401 -0.0060614902 0.00139417
0.090461403 -0.0029031599 0.0087504396
0.082451299 -0.0026618801 0.0170379
0.0177633 -0.0020856899 0.020847499
0.065015897 -0.00430942 0.034905799
0.0584049 -0.0043249698 0.0423605
0.050581299 -0.00160766 0.0509234
0.049029998 -0.0023571299 0.050973501
0.047467601 -0.00311983 0.051734202
0.033396199 -0.0023306599 0.062693201
0.0365327 -0.0036643201 0.065513998
0.111055 -0.00353074 -0.021279801
0.083871402 -0.0062581301 -0.017932801
0.116658 -0.0046044602 -0.01502
0.069528103 -0.0060057002 -0.017072
0.053324699 -0.00364077 -0.0161181
0.098088197 -0.0047069802 0.0042669
0.013389 -0.0085976096 0.0142139
0.090088502 -0.0063498002 0.016757401
0.02557 -0.0060750302 0.039760001
0.067776397 -0.0046905298 0.034547001
0.0670003 -0.0023390099 0.0361384
0.063093103 -0.0039190701 0.0369124
0.0274594 -0.0082250303 0.0511625
0.0506033 -0.0062358999 0.054860599
0.047467601 -0.0031242401 0.054856401
0.046206798 -0.0052635102 0.060107999
0.0327712 -0.00246549 0.066129804
0.0326529 -0.00601167 0.068930298
0.056263998 -0.0079518603 0.082682297
0.100833 -0.0104753 -0.0211109
0.121975 -0.0057923798 -0.019298
0.062594503 -0.0099196397 -0.0173104
0.056913499 -0.0060823001 -0.0149594
0.025684301 -0.0074785901 -0.0125214
0.056405 -0.00388181 -0.0147829
0.116025 -0.0089017199 -0.0054634698
0.105248 -0.0064010601 0.00030009399
0.016765701 -0.0087977704 0.0109583
0.077182397 -0.00705803 0.029074
0.075380303 -0.0072580599 0.0288877
0.063091598 -0.0062774401 0.038453199
0.061487399 -0.00475288 0.042359401
0.062343098 -0.0054820799 0.0407965
0.062327001 -0.00548315 0.042358
0.061516002 -0.0078060599 0.0454765
0.0584049 -0.0046671601 0.045490898
0.030957 -0.0086410102 0.057960901
0.0261248 -0.0093108397 0.073505104
0.040998399 -0.00607729 0.068723202
0.034026299 -0.0070434799 0.075925201
0.109643 -0.0134481 -0.0252748
0.120904 -0.011628 -0.0222106
0.0566485 -0.0068278899 -0.0174735
0.0141121 -0.0084325699 -0.0127301
0.124482 -0.0102773 -0.0107914
0.102654 -0.0104743 0.0108036
0.016780701 -0.0068651401 0.0154517
0.0155948 -0.0076059699 0.0163817
0.086337797 -0.0088026496 0.022649501
0.0152089 -0.010803 0.0249232
0.085110202 -0.0084629096 0.024552699
0.020012701 -0.0126706 0.024626199
0.080285698 -0.0070396699 0.025557701
0.073276497 -0.0070382999 0.031427901
0.067780398 -0.0063847899 0.037672199
0.0173175 -0.0152844 0.041604798
0.066217899 -0.00628549 0.039234299
0.066217497 -0.00624293 0.037671499
0.064654998 -0.0062397099 0.039233901
0.064482599 -0.0064107198 0.042359199
0.022010799 -0.0099671502 0.049110498
0.056138501 -0.0095350202 0.058538999
0.053714301 -0.0117359 0.066586599
0.036514301 -0.0114253 0.0798833
0.051396102 -0.0124362 0.086615302
0.074757703 -0.0138183 -0.0209786
0.090107903 -0.0085958196 -0.018982301
0.018461 -0.0087882904 -0.0160549
0.047221102 -0.011645 -0.0178064
0.050693899 -0.0073558101 -0.0137241
0.056888901 -0.0111949 -0.018377399
0.0546217 -0.0067681102 -0.0153804
0.032001 -0.00945496 -0.0153809
-0.112775 -0.0220515 -0.016423799
0.106959 -0.0097422004 0.0064069801
0.100581 -0.010181 0.0119001
0.013156 -0.0125596 0.0161738
0.016264699 -0.0094084702 0.0153589
0.088092402 -0.0086072097 0.022843299
0.080272801 -0.00937194 0.029854899
0.077155299 -0.0077326898 0.031420998
0.077155001 -0.0078142304 0.029859001
0.071898803 -0.0103451 0.0430796
0.0286968 -0.0085929101 0.054158598
0.074554898 -0.0078916 0.061169699
0.044209398 -0.0087006101 0.073717803
0.086495802 -0.0147197 -0.0220955
0.12213 -0.016013401 -0.016023099
0.066081204 -0.0165819 -0.021537
0.051667299 -0.014475 -0.018838501
0.132278 -0.0149942 -0.0097586904
0.037703998 -0.017238099 -0.019668501
0.103721 -0.0104773 0.0113361
0.102155 -0.0101696 0.0119127
0.0153672 -0.00968605 0.0142414
0.0139557 -0.0101548 0.014742
0.0146926 -0.0106854 0.0137292
0.099026799 -0.0101724 0.0150246
0.100591 -0.0109426 0.014234
0.096663602 -0.0094181905 0.0173568
0.097467497 -0.0101696 0.0165933
0.088092797 -0.0097475098 0.0247929
0.084967896 -0.0093668103 0.0251716
0.0217578 -0.0118939 0.032148302
0.076766498 -0.0103995 0.038403202
0.066016696 -0.0118418 0.0546006
0.028717499 -0.0093342699 0.054859001
0.027913401 -0.0101696 0.054859001
0.028661 -0.0101173 0.0565046
0.026852701 -0.012776 0.057993699
0.048262302 -0.0108998 0.068917803
0.049022902 -0.0109377 0.072039597
0.045031499 -0.0130512 0.078596704
0.026289901 -0.0127806 0.080838703
0.0326171 -0.019742999 0.083661303
-0.097053401 -0.0101696 -0.020141
-0.097845003 -0.0109843 -0.020141
-0.097845003 -0.0101696 -0.019318899
0.0092439596 -0.0153778 -0.0140692
0.0113171 -0.01461 -0.0063333102
0.0084428703 -0.0194306 -0.00062892702
0.115361 -0.013423 0.0031367801
0.010889 -0.0155083 0.0080876099
0.0153662 -0.010657 0.0087362397
0.100593 -0.0109293 0.0126715
0.103716 -0.0109237 0.0142314
0.099029601 -0.0108396 0.017358899
0.0159196 -0.0152895 0.018242599
0.012798 -0.0146899 0.0189071
0.095594302 -0.0127124 0.0227677
0.084603801 -0.0124692 0.034203202
0.112905 -0.017718101 0.044051301
0.021811301 -0.0147363 0.041926
0.024237501 -0.0160009 0.0481181
0.018507 -0.0143105 0.050519601
0.027924901 -0.0117338 0.053291298
0.027745999 -0.0138978 0.056643099
0.0268787 -0.0114567 0.053781301
0.017379301 -0.0210876 0.055677701
0.0198285 -0.019755701 0.062499002
0.0259399 -0.01723 0.067533098
0.059159201 -0.015760999 0.071093097
0.052113298 -0.0110086 0.068921097
0.052950099 -0.0117321 0.067359
0.053714901 -0.0109857 0.069687098
0.049029998 -0.0109297 0.070483997
0.052166499 -0.0140668 0.072053201
0.071752302 -0.0152277 0.081296101
0.0812001 -0.0195233 -0.0235178
-0.097845003 -0.0117321 -0.0208888
-0.097836301 -0.0140982 -0.0216936
-0.099407502 -0.0117321 -0.0209054
-0.099407502 -0.0132946 -0.0208952
0.020900499 -0.0194798 -0.017329101
0.0240431 -0.0179876 -0.0168794
-0.085825503 -0.0262849 -0.019127
0.122566 -0.018213101 -0.0080164503
0.124887 -0.0163434 0.0021419099
0.0141084 -0.0154012 0.0079782503
0.11488 -0.0154903 0.0096176798
0.0128333 -0.0163457 0.0126556
0.116071 -0.0149053 0.031504199
0.0190372 -0.017760901 0.036826301
0.082209297 -0.0147144 0.0417827
0.076986901 -0.015792999 0.050003398
0.0742082 -0.0154343 0.050346199
0.025857 -0.0168487 0.055043198
0.027155001 -0.0124934 0.053296499
0.029239999 -0.0155832 0.0735588
0.117273 -0.0188442 -0.0259075
0.102815 -0.020669499 -0.025402799
0.084940702 -0.016465301 -0.0211468
0.086311899 -0.0148571 -0.0217035
0.0865013 -0.0148793 -0.0218483
-0.100971 -0.0164195 -0.021875599
-0.10097 -0.0132946 -0.0208892
0.039313201 -0.016404901 -0.0201637
0.029578401 -0.021305 -0.0197317
0.0209672 -0.0164188 -0.0155049
0.105071 -0.016170399 0.021591799
0.0184827 -0.0163885 0.0220466
0.0995754 -0.015769601 0.026577899
0.0115407 -0.0199265 0.028170399
0.095236696 -0.0157362 0.031507801
0.0146004 -0.017589999 0.033148099
0.0898972 -0.017328 0.0400525
0.020968899 -0.0145468 0.042909302
0.0209074 -0.0145227 0.045820199
0.079467401 -0.015662801 0.0501724
0.072467104 -0.0156083 0.0564203
0.064540401 -0.0152491 0.063629903
0.020036601 -0.0213171 0.068500899
0.093092203 -0.0210276 -0.028169701
-0.099411599 -0.0197323 -0.019699501
0.088132702 -0.0162818 -0.0234595
0.037857901 -0.016537299 -0.0199976
0.00645336 -0.022085199 -0.0167909
0.0224656 -0.0179822 -0.0170433
0.12566601 -0.0160069 0.00278296
0.12510601 -0.016852699 0.0033221201
0.126096 -0.0164163 0.0037863899
0.016256901 -0.018004799 0.018974699
0.016243 -0.0157061 0.021180101
0.0175233 -0.019654199 0.030170601
0.0207747 -0.016995899 0.0458313
0.080175497 -0.016523501 0.049299199
0.074029997 -0.0156404 0.053296499
0.0775178 -0.016825899 0.053655401
0.077155001 -0.0156178 0.051734
0.072467498 -0.0156231 0.053296499
0.072755501 -0.016581699 0.054859899
0.075597703 -0.0156127 0.053302299
0.054639898 -0.018835699 0.076399602
0.070803598 -0.0198492 0.082477197
0.0879004 -0.017790301 -0.024517
0.118767 -0.022838401 -0.0210885
0.086839996 -0.017982099 -0.023266001
-0.104402 -0.0164019 -0.023221999
-0.105661 -0.018614201 -0.022770001
-0.100967 -0.018784899 -0.023276901
0.057636999 -0.0180007 -0.0213162
0.080244899 -0.021250101 -0.0239112
0.036447201 -0.018104101 -0.0216328
0.038072199 -0.018006099 -0.021695601
0.039190698 -0.0197719 -0.021197001
0.0211384 -0.0185549 -0.0176777
0.0137231 -0.0199554 -0.0142672
0.020887399 -0.0180069 -0.0154182
0.0209294 -0.017982099 -0.0154535
0.116379 -0.019396501 0.018131699
0.0094139203 -0.022368399 0.0126649
0.102148 -0.019552 0.032206502
0.099022999 -0.021097099 0.0337766
0.099032 -0.0195341 0.036104199
0.0155882 -0.0207753 0.044432301
0.087664403 -0.020095499 0.049881201
0.080122203 -0.0175045 0.0501731
0.075593397 -0.017130099 0.056421898
0.072844498 -0.019021301 0.063730299
0.031298 -0.0213857 0.075615101
0.043450698 -0.021751201 0.074762397
0.109803 -0.025507901 -0.0286383
-0.105649 -0.019584499 -0.027174
0.0822789 -0.019521 -0.023289001
-0.099407502 -0.018991901 -0.023266001
-0.097827703 -0.0179903 -0.023257401
0.034956999 -0.019610601 -0.0216232
0.0440116 -0.0187659 -0.019667
0.048860598 -0.025332199 -0.023381401
0.0240137 -0.019285999 -0.0184293
0.0106158 -0.0209742 -0.0087678796
0.12540001 -0.022643499 0.0124303
0.0115563 -0.0211093 0.0094572399
0.0128434 -0.0203976 0.0120125
0.018662401 -0.021303101 0.0195344
0.112286 -0.0203577 0.0251687
0.0130235 -0.024958599 0.023327701
0.10153 -0.019403599 0.0331241
0.101394 -0.0195446 0.034546498
0.0198998 -0.024400599 0.051201399
0.0239041 -0.0211778 0.061048798
0.074011303 -0.022688201 0.069700502
0.071703002 -0.0242298 0.072047897
0.061617799 -0.022009101 0.074568503
0.091300502 -0.021128099 -0.027832599
0.091083899 -0.021034701 -0.028529
-0.10722 -0.0211071 -0.0255751
0.082705103 -0.0208326 -0.0252151
0.085018396 -0.021314001 -0.0262217
0.0991432 -0.0276678 -0.0270606
0.115244 -0.0263467 -0.0287243
-0.102534 -0.021114999 -0.024834899
-0.100971 -0.0210655 -0.024880599
-0.086938299 -0.021090001 -0.025238199
-0.085354999 -0.0215628 -0.0246755
-0.085387401 -0.018735001 -0.02562
-0.0853872 -0.018735001 -0.0256199
0.058754701 -0.027578101 -0.0256346
0.081842497 -0.0211071 -0.0240336
0.081842497 -0.0199899 -0.023266001
0.039929502 -0.0194785 -0.0223069
0.039244499 -0.0235692 -0.0208617
0.069801398 -0.022633901 -0.023544099
0.023971301 -0.019877199 -0.0151508
0.020897301 -0.021114601 -0.0161168
0.0116696 -0.0211243 0.0096276803
0.0116365 -0.0216027 0.0114747
0.016697099 -0.019272 0.0220458
0.116223 -0.020364501 0.0227945
0.113093 -0.0211071 0.024405399
0.111327 -0.0213075 0.026141601
0.11311 -0.0218533 0.0267506
0.102155 -0.0203047 0.036108799
0.0182801 -0.0211014 0.037618399
0.0190724 -0.022505799 0.041462
0.102249 -0.024313901 0.044184599
0.080202803 -0.023099599 0.064236097
0.075595997 -0.0226664 0.0681611
0.0741532 -0.0233113 0.070607498
0.022364501 -0.0282581 0.076181501
0.088089399 -0.0217332 -0.027896101
0.083400697 -0.0226676 -0.0259484
0.084967501 -0.0226696 -0.0271862
-0.102534 -0.0242314 -0.025270199
-0.108748 -0.0211272 -0.027185
-0.086440101 -0.022667 -0.0246529
-0.085328802 -0.021315999 -0.027052499
0.080244198 -0.022765899 -0.024687599
0.081842497 -0.0226696 -0.0263454
0.0240214 -0.0250182 -0.0105223
0.0181225 -0.0261686 -0.00576729
0.122532 -0.023697799 0.00112441
0.133435 -0.026757499 0.011987
0.125008 -0.0252185 0.0229307
0.11622 -0.024243999 0.025962099
0.115046 -0.021467101 0.0271265
0.108629 -0.0240141 0.036876298
0.0208272 -0.027826499 0.039088201
0.02028 -0.0227159 0.0439125
0.0969145 -0.024362 0.049722299
0.089645997 -0.022878099 0.054207001
0.0788932 -0.0224941 0.066771701
0.077118203 -0.022709301 0.068110399
0.017363001 -0.028184701 0.068171702
0.0482217 -0.0261242 0.073561698
0.0568421 -0.0289161 0.071268201
0.085889198 -0.0247699 -0.0266032
-0.110347 -0.023202199 -0.025046499
-0.086508103 -0.024239801 -0.0259497
0.083412997 -0.02424 -0.026239799
0.083098799 -0.018112 -0.0348
0.08653 -0.023795201 -0.0279535
-0.088447399 -0.022665299 -0.023899101
-0.081737302 -0.0243096 -0.0247848
0.124467 -0.0371168 -0.016673001
-0.126012 -0.034233499 -0.021776
0.0071501201 -0.0283795 -2.10417e-05
0.010065 -0.0254096 0.0140964
0.0082385 -0.0259251 0.0143166
0.0161645 -0.025478199 0.037269399
0.0124698 -0.025570501 0.0388062
0.017326999 -0.023867499 0.041107699
0.017896799 -0.0219709 0.043967601
0.0182411 -0.0241067 0.042463299
0.088428698 -0.0245791 0.061017599
0.081835099 -0.023449199 0.064234197
0.0250143 -0.027675301 0.071556397
0.078720704 -0.023429601 0.0673621
0.074029997 -0.024232101 0.071283601
0.0757991 -0.0232422 0.070684299
0.077154502 -0.024986001 0.070484899
0.037310101 -0.028344501 0.072346799
0.094040699 -0.0294625 0.076976098
0.087806404 -0.025997 -0.029581901
0.087945998 -0.0246165 -0.0289887
0.087825797 -0.0249916 -0.0290739
0.094285697 -0.028805699 -0.028881701
0.085644603 -0.025794599 -0.029516
-0.111907 -0.024232101 -0.0271463
-0.111907 -0.025784301 -0.0264144
-0.088417202 -0.025793601 -0.0270079
-0.086010598 -0.0242026 -0.0294179
-0.0851105 -0.026701 -0.0277863
0.080277301 -0.025796 -0.0254435
0.0834051 -0.0270814 -0.027953601
-0.102524 -0.025057301 -0.0279282
-0.100206 -0.024235399 -0.0271823
0.032565299 -0.0275751 -0.0104209
0.120007 -0.026991799 -0.00675738
0.0146459 -0.0293584 0.0047892798
0.0102113 -0.0277339 0.0144171
0.0063926699 -0.0277125 0.0211011
0.117407 -0.0273588 0.036969598
0.111282 -0.0286204 0.047048099
0.0186301 -0.027647899 0.040929701
0.108405 -0.028518001 0.047047801
0.0151403 -0.0268075 0.052260101
0.0203149 -0.0261194 0.0627774
0.022432299 -0.0273447 0.064253002
0.081834801 -0.023456199 0.0688942
0.087419197 -0.0282818 0.068192199
0.079938702 -0.0302686 0.070396498
0.030425699 -0.0266861 0.072070204
0.071666703 -0.0257961 0.072803997
0.074029699 -0.027357901 0.071280703
0.066956602 -0.027323799 0.071992502
-0.087931499 -0.026199101 -0.0290669
0.0707919 -0.0290462 -0.028418601
0.082305796 -0.027179699 -0.031343699
-0.113472 -0.0262403 -0.025986999
-0.102527 -0.0266024 -0.0287142
-0.088889502 -0.025816699 -0.030222701
0.0802081 -0.0277662 -0.0262332
0.080689497 -0.0273571 -0.026391
0.081854299 -0.025777601 -0.026396601
0.050582699 -0.028175199 -0.018579099
0.0152885 -0.0285405 -0.0237817
0.0134778 -0.0266493 -0.0192928
0.0537179 -0.0298151 -0.0186192
-0.070484497 -0.0329087 -0.0237872
0.039655 -0.0293725 -0.0123434
0.0110801 -0.0369743 0.00060636399
0.0271561 -0.029218299 -0.0040055499
0.0152865 -0.026352899 0.0368414
0.100244 -0.0276352 0.055465799
0.016284499 -0.028623501 0.056822099
0.0161162 -0.0273079 0.0579517
0.023222901 -0.0273571 0.065796502
0.020909499 -0.0303073 0.065796703
0.063092098 -0.0289193 0.0713275
0.067780003 -0.0273571 0.071301699
0.0693243 -0.027344801 0.072028503
0.070905 -0.0273571 0.071285099
0.028717499 -0.0273571 0.073006898
0.104904 -0.0297562 -0.030857399
0.091011897 -0.033609599 -0.031383101
-0.11455 -0.0293363 -0.0269753
-0.10917 -0.030900201 -0.029904701
-0.091590904 -0.028934101 -0.027591299
-0.087673202 -0.0289228 -0.0295118
-0.086109698 -0.0273571 -0.029516
0.080536999 -0.029232999 -0.027663499
0.115297 -0.033488002 -0.0231454
-0.107217 -0.0282348 -0.029427299
-0.103943 -0.028293001 -0.027801899
-0.102532 -0.028165299 -0.0279535
-0.090568997 -0.0256104 -0.0297218
0.064602301 -0.0299068 -0.025789401
0.081842497 -0.0273571 -0.027312299
0.082871303 -0.027074199 -0.028368499
0.0582847 -0.029857101 -0.021737499
0.050591901 -0.0296211 -0.0154527
0.117549 -0.033403199 -0.0123505
0.030275401 -0.029735399 -0.0045160898
0.0150409 -0.0303881 0.0049113501
0.0146681 -0.030281 0.00675942
0.122121 -0.030624401 0.0079847705
0.123619 -0.029964 0.016862299
0.12585799 -0.030792 0.030956199
0.0101809 -0.029408401 0.033447001
0.0071815699 -0.032485999 0.038046598
0.0162175 -0.0276738 0.037671499
0.0159685 -0.028667999 0.039455298
0.0068417001 -0.028751699 0.0407978
0.00668723 -0.028843001 0.040769201
0.0068425201 -0.0289196 0.041108198
0.0165084 -0.0289196 0.0407965
0.0120384 -0.028934499 0.047382101
0.115517 -0.031749699 0.0479622
0.016297899 -0.029905001 0.0460838
0.111453 -0.029766699 0.0485195
0.1112 -0.0300059 0.0501661
0.108405 -0.0280443 0.0502
0.0164483 -0.0295402 0.051385801
0.020917101 -0.0288765 0.0626987
0.097937301 -0.0293587 0.063426003
0.03028 -0.028917501 0.072046503
0.033058301 -0.033118501 0.070032597
0.044341899 -0.033353999 0.0692292
0.066218004 -0.028157201 0.072046302
0.023819299 -0.034407999 0.072034001
0.03028 -0.0289196 0.072046697
0.0318425 -0.0289196 0.072839402
0.027427001 -0.035621099 0.0778744
0.065706402 -0.039068799 0.074674197
-0.11659 -0.0289168 -0.028713901
0.085576102 -0.0323474 -0.030631499
-0.115032 -0.0289177 -0.027958
-0.094724201 -0.028826401 -0.032137699
-0.087757602 -0.030238001 -0.0299176
0.078213401 -0.031876098 -0.0281431
0.0606502 -0.0306208 -0.021853101
0.0585935 -0.030300099 -0.020751899
0.053720601 -0.0304792 -0.0162537
0.0501628 -0.032337502 -0.0099318996
0.052907702 -0.0304894 -0.0154608
0.042761602 -0.030825401 -0.012254
0.0396556 -0.031970602 -0.011512
0.030234 -0.030528801 -0.0038062099
0.024272799 -0.032239702 0.00120955
0.018991999 -0.032637302 0.0058592502
0.0084284199 -0.032643698 0.036053501
0.0068763499 -0.0305587 0.038400002
0.006271 -0.0307524 0.040527001
0.12439 -0.035149898 0.046647999
0.0135007 -0.033343799 0.042450301
0.014919 -0.0317677 0.047439501
0.0134474 -0.032089401 0.049649801
0.0148289 -0.031112401 0.0544459
0.016725 -0.0313522 0.0557344
0.0161401 -0.0311768 0.057496902
0.0162837 -0.032738298 0.061702602
0.095536597 -0.036414601 0.066413097
0.069085799 -0.032042999 0.069127999
0.055275299 -0.032351099 0.070378602
0.0568198 -0.0320733 0.069768302
0.066592902 -0.0300532 0.070063002
0.063090503 -0.031953901 0.069553301
0.066217497 -0.0304821 0.071305402
0.11208 -0.0356686 -0.032159101
-0.116595 -0.032044601 -0.030259199
-0.113475 -0.034347702 -0.030333299
-0.0962772 -0.029043101 -0.033257499
-0.090035498 -0.034001999 -0.031293899
-0.0884725 -0.032859199 -0.031080499
0.1008 -0.0366592 -0.0329348
-0.10722 -0.031289201 -0.029516
0.068231903 -0.034297202 -0.0208374
0.0360316 -0.0376154 -0.0286879
0.040811401 -0.033351999 -0.024952
-0.088375002 -0.049618799 -0.0299107
0.059967499 -0.0304821 -0.0209323
0.036564399 -0.0344439 -0.00141344
0.0271497 -0.032068599 -0.0053339801
0.0070426501 -0.0340802 0.0115546
0.00878336 -0.032668799 0.0318731
0.0070114499 -0.032002799 0.0329968
0.0114425 -0.033588 0.033067901
0.0120195 -0.033561401 0.034516599
0.0068395101 -0.0320528 0.039030202
0.0067537399 -0.0336041 0.039753798
0.0143912 -0.0335158 0.0455552
0.0147034 -0.032742001 0.048960298
0.0144952 -0.031713001 0.0516419
0.016407801 -0.032093398 0.053355701
0.116263 -0.0335235 0.0533133
0.106472 -0.035701498 0.065568902
0.088403098 -0.037138399 0.066521198
0.066123404 -0.032048099 0.070139602
-0.119703 -0.035169899 -0.031767301
-0.097860001 -0.033546701 -0.028778801
-0.11972 -0.0320444 -0.0302564
-0.108776 -0.032041799 -0.031832099
0.074505001 -0.035504799 -0.020971101
-0.141307 -0.0494712 -0.0282392
0.056171499 -0.0354863 -0.0098903999
0.043802802 -0.036205199 -0.0019914401
0.11881 -0.035051599 -0.000467295
0.027517701 -0.034923401 0.00656371
0.120874 -0.041474 0.018084399
0.019481899 -0.035800599 0.0134527
0.016558999 -0.035208501 0.054589
0.0153481 -0.034318902 0.0553408
0.016213 -0.033393499 0.054714199
0.016602101 -0.036947701 0.068453401
0.045904201 -0.0352256 0.071394697
0.062684 -0.033730801 0.069152899
0.063096099 -0.033141099 0.068918101
0.060152099 -0.033649899 0.072823398
0.061557099 -0.033607598 0.0689229
0.0584056 -0.032029498 0.070468903
0.058405001 -0.032044601 0.070500903
-0.11347 -0.0367341 -0.031789999
-0.103135 -0.033406001 -0.031278402
-0.102534 -0.0335785 -0.030330099
-0.102377 -0.035168499 -0.0315268
-0.093145899 -0.035976801 -0.0342087
-0.090023197 -0.035870399 -0.031920899
-0.108771 -0.0312231 -0.0342714
0.083530404 -0.0383453 -0.0227833
0.066221103 -0.039665598 -0.00920045
0.118522 -0.0398448 -0.00057581998
0.12718 -0.0480146 0.0130243
0.036696199 -0.0373643 0.0063668401
0.123303 -0.035442501 0.021218101
0.00754007 -0.034924898 0.0329898
0.0099476296 -0.035113901 0.0330499
0.126339 -0.034626499 0.038745299
0.00676797 -0.033607099 0.037671499
0.0090606101 -0.034696601 0.037587099
0.014655 -0.034975398 0.047046501
0.0146478 -0.0366311 0.047082901
0.0147178 -0.035109401 0.046891
0.0146666 -0.035274301 0.0485944
0.117966 -0.0383384 0.062818199
0.0178112 -0.034366898 0.065834597
0.047503501 -0.0345033 0.068846002
0.055270799 -0.035445798 0.068911597
0.0583998 -0.0352857 0.069058903
0.044351701 -0.038267002 0.066633597
0.058405001 -0.033607099 0.069737799
-0.122845 -0.035169601 -0.031831998
-0.107221 -0.036787201 -0.031729899
-0.10722 -0.035169601 -0.031828199
-0.090742297 -0.0367321 -0.032641001
0.0309483 -0.038389001 -0.0086527998
0.080259703 -0.037558101 -0.0155069
0.074018098 -0.0390958 -0.013903
0.114023 -0.041775301 -0.0147587
0.061528198 -0.0406508 -0.0091820797
0.057156 -0.039758299 -0.00111722
0.028724199 -0.0391066 0.014233
0.0065874602 -0.039678901 0.020103799
0.017780101 -0.039111398 0.020483701
0.0146413 -0.037731498 0.022036901
0.0099306898 -0.035625599 0.0345429
0.0075716898 -0.035066798 0.036316101
0.123412 -0.044293601 0.044540402
0.127349 -0.039161898 0.0535619
0.0132343 -0.039182398 0.057644699
0.0141747 -0.038089499 0.064547002
0.037182398 -0.037360601 0.067373402
0.047106601 -0.0398404 0.064816698
0.073408097 -0.041336801 0.065900698
0.081708796 -0.041357599 0.065138102
0.0568242 -0.0351905 0.068988502
0.0607014 -0.039648801 0.0668163
0.110148 -0.040236801 -0.032314401
-0.122837 -0.0382898 -0.033411801
-0.115032 -0.038269602 -0.0319461
-0.116602 -0.039097302 -0.0342106
-0.10885 -0.038367301 -0.033163
-0.111908 -0.037418202 -0.032752801
-0.111907 -0.0367321 -0.031802099
-0.108782 -0.0367321 -0.031830002
0.102155 -0.040665299 -0.027953099
0.095901802 -0.040350702 -0.0248299
0.056586299 -0.045668501 -0.0098026404
0.077156402 -0.038589701 -0.0165105
0.116671 -0.039859802 -0.0013918401
0.059972599 -0.039934799 -0.0049303402
0.053717598 -0.039157402 0.000171101
0.044105198 -0.038183901 0.0049827099
0.031842299 -0.040649001 0.0142418
0.0255941 -0.0391404 0.017364999
0.123071 -0.041723099 0.032792602
0.11153 -0.041418601 0.063483201
0.047457598 -0.0381901 0.067256898
0.021944899 -0.0426226 0.067376502
-0.12600601 -0.0398685 -0.036638498
-0.121282 -0.0468737 -0.034708198
-0.115032 -0.039095901 -0.0342035
-0.114286 -0.039871398 -0.034189701
-0.110339 -0.038284 -0.0318431
-0.0931575 -0.039857101 -0.033381801
-0.124407 -0.038294598 -0.031829901
0.104621 -0.042128 -0.0279491
0.113083 -0.041998401 -0.0228642
-0.111799 -0.047901299 -0.028474901
0.095911801 -0.041413199 -0.0224947
0.088091798 -0.040580701 -0.020138901
0.089651801 -0.040234499 -0.020134199
0.084966801 -0.040361501 -0.018274
0.084969297 -0.041418899 -0.016246499
0.077155001 -0.039097998 -0.0138909
0.074029803 -0.040716201 -0.0107667
0.066222496 -0.039852198 -0.0068782899
0.061530001 -0.039857101 -0.00532299
0.058423098 -0.040585399 -0.0021207901
0.059971999 -0.039852899 -0.00220116
0.056846101 -0.039088 0.000171473
0.118526 -0.042174201 0.00173469
0.118809 -0.041889399 0.00815369
0.044337802 -0.040603299 0.0064274701
0.046155199 -0.040110901 0.0064235502
0.020904999 -0.040657301 0.020486601
0.025792001 -0.041218799 0.019865699
0.01778 -0.039106399 0.022046501
0.0146635 -0.040605199 0.024421901
0.0099358 -0.040824801 0.030288501
0.126149 -0.043921601 0.0598098
0.108408 -0.041420601 0.063488603
0.016009901 -0.041723799 0.068021402
0.041242901 -0.03985 0.067547597
0.044342499 -0.039857101 0.065866902
0.045104399 -0.038294598 0.067359
0.046811 -0.036610302 0.065727398
-0.11189 -0.0398577 -0.033435602
-0.110795 -0.042973801 -0.0340533
-0.108782 -0.041419599 -0.034962598
-0.109541 -0.041420098 -0.034203
-0.107227 -0.040624999 -0.034997899
-0.093150899 -0.041414998 -0.033456799
-0.12597001 -0.041419599 -0.033379599
-0.097841904 -0.0422161 -0.034525499
-0.091595002 -0.039857101 -0.033389401
-0.091595002 -0.040663902 -0.0342035
0.0666878 -0.039199699 -0.031094
0.079001002 -0.0432062 -0.031950701
0.077509597 -0.0475097 -0.021917799
0.099023901 -0.042175099 -0.024823399
0.102173 -0.042161599 -0.025563801
0.088092498 -0.040655501 -0.0185785
0.089718796 -0.039793301 -0.019293999
0.088120297 -0.039836299 -0.016224001
0.080280401 -0.040665898 -0.0123267
0.075592503 -0.040669002 -0.013891
0.077155098 -0.040635802 -0.0123285
0.077155001 -0.040653501 -0.010766
0.11535 -0.044544902 -0.0060787601
0.072653599 -0.042338401 -0.00672286
0.064654998 -0.039857101 -0.0069232499
0.063467398 -0.039460301 -0.00508135
0.063095398 -0.039087601 -0.0029585101
0.063094102 -0.040967301 -0.0028623601
0.117029 -0.041419599 -0.00295352
0.059804801 -0.0415879 -0.00236893
0.117027 -0.041419599 -0.00139102
0.057001799 -0.039696898 0.00109651
0.0569355 -0.041329 0.00256225
0.053717401 -0.0421867 0.0025329201
0.030442899 -0.0458881 0.0062903999
0.046391699 -0.039393201 0.0076700398
0.028717499 -0.040663201 0.017359
0.0318329 -0.0391009 0.019696301
0.0284323 -0.0417061 0.017831501
0.020915 -0.040610801 0.0228732
0.017763801 -0.042215101 0.0220476
0.0177911 -0.040628899 0.0259725
0.031842701 -0.044656798 0.065294497
0.0442486 -0.042827301 0.066212997
0.0516316 -0.043990199 0.066015303
0.0165573 -0.0409321 0.071534097
0.018761201 -0.0528634 0.069086097
-0.127534 -0.042881101 -0.031973299
-0.116587 -0.043797001 -0.035758398
-0.111907 -0.042982101 -0.034947898
-0.091585003 -0.043712899 -0.035017099
-0.090026997 -0.041425299 -0.036492601
-0.089265801 -0.0430011 -0.036545701
0.110477 -0.045712601 -0.0230837
0.097176 -0.0417029 -0.024351399
0.101768 -0.0438045 -0.0198739
0.113888 -0.0476695 -0.0060811499
0.115451 -0.042982101 -0.0045160102
0.11555 -0.042983402 -0.0029994301
0.061788902 -0.0411635 -0.0019590401
0.05528 -0.041419599 0.00247701
0.055885401 -0.043761399 0.00667154
0.117016 -0.042982101 0.00173398
0.046278801 -0.0450092 0.0138611
0.0095081897 -0.045495499 0.016473399
0.036710601 -0.042674098 0.0151658
0.0270108 -0.041561801 0.0179796
0.0280436 -0.0452649 0.026163099
0.0059770299 -0.044251502 0.0277484
0.020541999 -0.040974502 0.024057001
0.016326901 -0.044954099 0.032911699
0.11153 -0.045643501 0.061441801
0.112288 -0.047667399 0.061864998
0.090224102 -0.0463362 0.062103
0.108405 -0.0461061 0.061904699
0.036523599 -0.044539601 0.065789603
0.057489101 -0.048535399 0.064084098
0.0344809 -0.044719599 0.065232903
-0.0931262 -0.045443401 -0.037310299
-0.091591597 -0.044541299 -0.036219899
-0.12908401 -0.043078002 -0.037771001
-0.117184 -0.046311799 -0.035580199
-0.11735 -0.0445446 -0.035766002
-0.087680496 -0.042982101 -0.035766002
-0.067528397 -0.0491645 -0.0305067
0.091427699 -0.0454445 -0.0127311
0.078228503 -0.046450101 -0.00201162
0.115456 -0.0445446 -0.0045160102
0.065038599 -0.045158699 0.00122838
0.116136 -0.0445465 -0.000168691
0.117027 -0.042982101 0.00017148101
0.116605 -0.0502459 0.016565099
0.0441489 -0.044546999 0.064644501
0.068923898 -0.047107399 0.063523397
0.041217498 -0.044544999 0.065454699
0.0437392 -0.042772699 0.065590397
0.056888498 -0.052546401 0.069825001
-0.092928603 -0.0461036 -0.037434999
-0.10722 -0.046167899 -0.035767499
-0.100018 -0.0476331 -0.037554801
-0.0923898 -0.046107799 -0.037347201
-0.088496 -0.0445811 -0.0396352
-0.080412701 -0.045654699 -0.037770901
-0.082206003 -0.046095502 -0.0373533
0.075469203 -0.046176702 -0.0358142
0.098083802 -0.047313999 -0.037803899
-0.130657 -0.0445446 -0.0349303
-0.130659 -0.047669802 -0.0365256
-0.11584 -0.0445446 -0.035766002
-0.113493 -0.0430036 -0.036438599
-0.113494 -0.043747202 -0.0372889
0.098850504 -0.0489765 -0.0303241
0.101064 -0.047009099 -0.0126249
0.0885965 -0.048739899 -0.00184286
0.113893 -0.046107098 -0.00139088
0.115455 -0.0445446 -0.00139102
0.068843201 -0.048175801 0.0065636099
0.0560573 -0.047106501 0.0136744
0.115533 -0.050584901 0.0079847602
0.0412114 -0.048475601 0.0251712
0.034579299 -0.0485829 0.029058401
0.0113451 -0.050885402 0.027020499
0.00830488 -0.047106098 0.036006801
0.0148012 -0.046833601 0.0376992
0.12039 -0.0471799 0.0301691
0.076979503 -0.051014099 0.061457001
0.031842101 -0.047666602 0.063482903
0.0139883 -0.049316101 0.066096902
-0.091593802 -0.048144899 -0.039086301
-0.089317702 -0.047662102 -0.0366106
-0.125964 -0.0492245 -0.037335001
-0.121282 -0.048455302 -0.037327699
-0.108797 -0.045015801 -0.039148301
-0.084591597 -0.046107098 -0.0373285
-0.082943797 -0.044592399 -0.0389679
-0.085710898 -0.047257099 -0.0377184
-0.084448501 -0.0476816 -0.037325501
-0.080657497 -0.046920098 -0.0373285
-0.118601 -0.045788199 -0.036507599
0.103074 -0.051325299 -0.0060746199
0.095062703 -0.0501616 -0.00390543
0.117022 -0.0476606 -0.00138925
0.0271577 -0.0490226 0.0345488
0.016129499 -0.049048498 0.042370699
0.016566901 -0.048959602 0.041535601
0.0177742 -0.047975101 0.040894601
0.0192389 -0.047285601 0.040892001
0.0208687 -0.049237099 0.041028701
0.121775 -0.052702699 0.048936799
0.109284 -0.047671601 0.061111301
0.109968 -0.046983998 0.061108999
0.036398299 -0.047805499 0.063886203
0.046032999 -0.049215101 0.064027697
-0.111911 -0.050776798 -0.038061202
-0.111095 -0.049223199 -0.038141198
-0.091595002 -0.049233101 -0.039602999
-0.133782 -0.0493389 -0.0373284
-0.127528 -0.0506013 -0.040013801
-0.126701 -0.0507043 -0.038981002
-0.124407 -0.049232099 -0.038078502
-0.122846 -0.049209598 -0.037349299
-0.108781 -0.049233101 -0.038353201
-0.091164596 -0.049526598 -0.038589299
-0.086468101 -0.047664899 -0.037658799
-0.082220003 -0.049232099 -0.038074899
-0.082220003 -0.047669601 -0.038047001
-0.133782 -0.047669601 -0.0365301
0.11195 -0.0525182 -0.0081999004
0.080279902 -0.051589999 0.0064252201
0.077153698 -0.049773298 0.0064207301
0.074030198 -0.050154999 0.0095467903
0.0574832 -0.050232399 0.0181325
0.0505923 -0.0500331 0.0236076
0.117837 -0.055114102 0.030587601
0.046028301 -0.048220001 0.023607999
0.0459156 -0.050023999 0.025180399
0.0294945 -0.049228702 0.034549799
0.036348 -0.0519168 0.036119498
0.0271577 -0.049574699 0.036175799
0.0111277 -0.052264702 0.047994401
0.0199081 -0.049514499 0.0428937
0.0178668 -0.049243499 0.0439074
0.094342597 -0.050795399 0.060347099
0.097467601 -0.049383 0.060652301
0.085770503 -0.051289398 0.0601504
0.033394899 -0.047674902 0.064249799
0.067393199 -0.054209601 0.060263801
0.034967501 -0.047669601 0.065052703
0.088953599 -0.055854 0.066297002
-0.081796803 -0.050620399 -0.0383563
-0.133856 -0.050795399 -0.0382553
-0.12555601 -0.051170301 -0.039308
-0.099744499 -0.053290199 -0.0394555
-0.081235699 -0.050679699 -0.0382833
-0.076789498 -0.049192399 -0.038936801
0.073407598 -0.053863 -0.0053582699
0.119491 -0.0578123 -0.0103511
0.100596 -0.050451402 -0.0060756602
0.100593 -0.0506313 -0.00293617
0.058706801 -0.0561448 0.0093866596
0.112849 -0.055127501 -0.00047926101
0.077155001 -0.050037399 0.0095464801
0.0724677 -0.050631899 0.0111079
0.074029997 -0.050032102 0.011109
0.072470903 -0.053118099 0.0134784
0.050592002 -0.0500484 0.026732899
0.041217498 -0.050029501 0.0282965
0.0474675 -0.050034501 0.026734
0.047467601 -0.050748501 0.027541799
0.043526798 -0.050804399 0.0282866
0.0106553 -0.053697899 0.039624099
0.119284 -0.053585202 0.0378647
0.0178059 -0.049258102 0.042145301
0.017968399 -0.049232099 0.042358998
0.0202519 -0.052124299 0.046627901
0.117142 -0.052530199 0.057418302
0.097468801 -0.053066399 0.059481699
0.018065101 -0.0536897 0.063301601
0.028173 -0.055496302 0.061176099
-0.13225 -0.053826202 -0.040536199
-0.129095 -0.0523571 -0.039627101
-0.12753201 -0.0523571 -0.039633699
-0.111919 -0.050811 -0.041103799
-0.11347 -0.053953201 -0.041143499
-0.080781303 -0.0507796 -0.0397195
-0.079756603 -0.0523846 -0.040430699
-0.13690799 -0.050792899 -0.037686002
-0.074726202 -0.0656588 -0.037958201
0.106495 -0.053992499 -0.0036043101
0.103718 -0.0523571 -0.0037497401
0.102902 -0.052370898 -0.00296737
0.095248297 -0.052873202 0.00281537
0.085240602 -0.054108098 0.0101116
0.080280699 -0.051708501 0.0095459102
0.114807 -0.055028901 0.0126694
0.075592503 -0.050794601 0.0103104
0.075582102 -0.050013099 0.0118998
0.0771299 -0.050820202 0.0102784
0.077917099 -0.050789699 0.0095513798
0.075597599 -0.052352101 0.013445
0.068244599 -0.0536342 0.019936001
0.038440399 -0.064164497 0.039773699
0.116441 -0.057539798 0.024158999
0.056691099 -0.052830301 0.024046499
0.044342499 -0.050794601 0.0274921
0.12625401 -0.0628516 0.034138799
0.0284827 -0.053479899 0.045101099
0.119482 -0.059276499 0.052404299
0.094342001 -0.055402 0.062459402
0.097467497 -0.0523571 0.0603729
0.052410498 -0.056657799 0.060814202
-0.130657 -0.0531676 -0.040453501
-0.130657 -0.053919598 -0.041205499
-0.11347 -0.0523596 -0.0396268
-0.080704197 -0.056214899 -0.042086899
-0.136907 -0.053918499 -0.039062701
-0.129095 -0.053138401 -0.040453501
-0.080994397 -0.051957101 -0.041778799
0.111817 -0.057762399 -0.0225651
0.103752 -0.055881999 0.0030387901
0.092358202 -0.055600502 0.0108242
0.074031599 -0.052355502 0.0134197
0.075626999 -0.054788999 0.017237
0.050039001 -0.055101302 0.033073299
0.058405001 -0.0578449 0.034546901
0.0943425 -0.052367099 0.0595465
0.0943406 -0.053919699 0.057982001
0.097464502 -0.0539199 0.0591482
0.100958 -0.056251999 0.057003401
0.032969899 -0.054194 0.0701648
-0.135346 -0.057849199 -0.042016398
-0.13222501 -0.057032 -0.042031001
-0.115654 -0.053723302 -0.040653899
-0.115034 -0.053920299 -0.039642401
-0.115128 -0.055443201 -0.041338
-0.090031996 -0.057695501 -0.042701099
-0.082284503 -0.057009902 -0.042262699
-0.14003199 -0.053918298 -0.039455902
0.084146902 -0.0568108 0.017294999
0.019649999 -0.061050199 0.044596002
0.0396377 -0.057342101 0.045481302
0.0427742 -0.056301098 0.042358998
0.0270367 -0.056570299 0.054678202
0.010895 -0.0581786 0.059869099
0.0186201 -0.056121498 0.057568401
0.027105199 -0.056333501 0.0575114
0.028264999 -0.057190001 0.0570007
0.090597801 -0.056672402 0.058421701
0.0943425 -0.055482101 0.0572704
0.097467497 -0.055482101 0.057229601
0.097467497 -0.0547278 0.057983998
0.10723 -0.0587475 0.055492699
0.0818417 -0.056998301 0.057944398
0.0950948 -0.055436 0.057932701
0.0967132 -0.055482101 0.057983998
0.042015702 -0.0603793 0.0593572
0.036861502 -0.0546824 0.061917402
0.044027001 -0.067714602 0.064787298
-0.116601 -0.058594 -0.043519299
-0.116607 -0.055490699 -0.041979901
-0.14003301 -0.057043601 -0.0410113
-0.103948 -0.060255501 -0.0428054
0.091546103 -0.058029499 -0.0080738002
0.118945 -0.068776302 0.0073788599
0.108463 -0.060281798 0.00854865
0.1139 -0.057044599 0.011109
0.113903 -0.057044599 0.0126715
0.113093 -0.054707401 0.0158021
0.055741701 -0.065034501 0.030573601
0.0787175 -0.0580226 0.0236097
0.072944097 -0.057889201 0.0270749
0.067075796 -0.058843601 0.0307428
0.0537141 -0.059367798 0.040036101
0.0537179 -0.058130998 0.0376698
0.045937099 -0.056220401 0.042359099
0.117317 -0.0622545 0.042528
0.045908801 -0.058637001 0.044718299
0.031852201 -0.0567795 0.050171401
0.033404998 -0.056282301 0.047046501
0.038044199 -0.0599548 0.0469901
0.033404998 -0.057044599 0.048609
0.033404998 -0.057044599 0.048608899
0.0326056 -0.057044599 0.050171498
0.031878699 -0.058139101 0.051026899
0.0258362 -0.0569534 0.056332499
0.024809601 -0.056108698 0.060321301
0.082711197 -0.058463302 0.059347399
0.0849647 -0.0578399 0.057982799
-0.14315701 -0.058607101 -0.042727299
-0.14004099 -0.060026001 -0.043071602
-0.082438402 -0.058594 -0.044597
-0.143158 -0.057048701 -0.0411699
-0.133782 -0.057865601 -0.042016
0.11391 -0.0601696 0.0111048
0.0975454 -0.059799299 0.0169381
0.113616 -0.058606502 0.015798399
0.088993199 -0.061371099 0.0235659
0.081842497 -0.059395999 0.023616301
0.060001802 -0.060912602 0.034557998
0.05528 -0.057845701 0.036109
0.058405001 -0.057843801 0.036109
0.05528 -0.057855099 0.037671499
0.042780101 -0.057832301 0.045483898
0.0427798 -0.058520999 0.046393499
0.033404998 -0.0570447 0.048609
0.034967501 -0.057066999 0.048609
0.0380922 -0.058607198 0.049369
0.035070799 -0.056177199 0.0510315
0.039662398 -0.0593739 0.049420699
0.037278999 -0.061351798 0.056584299
0.031171 -0.056340899 0.053810399
0.0348018 -0.0604758 0.051660001
0.095490202 -0.062127199 0.055123601
0.0272868 -0.0571176 0.057706799
0.0783199 -0.0591847 0.057782099
0.084967501 -0.060185701 0.057248801
0.058975101 -0.0607647 0.056194201
-0.089460097 -0.063958198 -0.044978399
-0.14472 -0.060169499 -0.042752799
-0.14472 -0.058607101 -0.042760398
-0.13845401 -0.0593674 -0.0428023
-0.137658 -0.060162399 -0.0420231
-0.135345 -0.0601696 -0.0427581
-0.118158 -0.060168099 -0.042553499
-0.118157 -0.058607101 -0.042335398
-0.082218997 -0.061729699 -0.043222599
-0.081438199 -0.0601696 -0.043578502
0.113515 -0.063424602 -0.0120988
0.080409303 -0.0660173 0.016542301
0.113894 -0.058607101 0.014234
0.114021 -0.060170099 0.0142342
0.081848599 -0.057215199 0.028879801
0.1137 -0.065942802 0.0232067
0.078716896 -0.060170598 0.026716899
0.0615291 -0.059416901 0.037670601
0.060916401 -0.060786799 0.037814301
0.056842498 -0.0594065 0.039234001
0.056837998 -0.060957301 0.040798102
0.060720298 -0.0601715 0.039232001
0.040353201 -0.058607101 0.048609
0.045252301 -0.0613041 0.0520088
0.065693997 -0.059055999 0.058313701
0.073187999 -0.064213499 0.055681299
0.081842497 -0.0601696 0.057264801
0.0207492 -0.061744198 0.065655999
-0.143199 -0.061648902 -0.044459
-0.141684 -0.061695602 -0.043632101
-0.119457 -0.061501101 -0.044224601
-0.14472 -0.061732098 -0.0427645
-0.146282 -0.0601689 -0.0426003
-0.14003199 -0.061732098 -0.042759601
-0.11972 -0.0601696 -0.0427728
-0.079094 -0.060134299 -0.043612499
-0.079094 -0.060134299 -0.043612499
-0.113138 -0.073097304 -0.040180501
0.102536 -0.063620299 0.020873601
0.078638002 -0.061368302 0.0306547
0.115936 -0.066056497 0.032977201
0.073240198 -0.063603498 0.038333699
0.0615221 -0.062612101 0.043293301
0.0118204 -0.0621881 0.051189002
0.051950801 -0.0645601 0.053612702
0.113153 -0.0609743 0.054191899
0.081838302 -0.0617228 0.0569929
0.084967501 -0.0613738 0.0564215
0.084965304 -0.0617291 0.056048598
0.083400503 -0.060128901 0.056380101
0.071575202 -0.064083897 0.064198203
-0.121268 -0.063145697 -0.045290198
-0.121282 -0.061732098 -0.0443555
-0.096060403 -0.065078303 -0.0447184
-0.0822016 -0.068000697 -0.045913201
-0.080657303 -0.063850902 -0.045261599
-0.079910398 -0.061735898 -0.045966301
-0.14472 -0.062518403 -0.043578502
-0.146282 -0.063294597 -0.043547101
0.098147698 -0.0670202 0.0074148201
0.087505899 -0.064567201 0.033997901
-0.122845 -0.063294597 -0.044327501
-0.122844 -0.066344 -0.046019599
-0.110653 -0.066535801 -0.046292599
-0.14703999 -0.062541597 -0.044329502
0.107236 -0.066130497 0.0259389
0.101642 -0.067699298 0.032384999
0.115102 -0.069683097 0.0479596
0.062232502 -0.066580102 0.051301099
0.0183408 -0.066704802 0.059010901
0.097459801 -0.068693601 0.052678801
-0.105998 -0.071800701 -0.048744801
-0.080664799 -0.063238598 -0.049885601
-0.075177602 -0.064857103 -0.046703499
-0.075970002 -0.065681197 -0.046703499
-0.075970002 -0.064857103 -0.0458978
0.069105297 -0.0733473 0.039734099
0.090941601 -0.067099802 0.0381383
0.081572801 -0.067765899 0.043925501
0.076642998 -0.067080103 0.046156101
0.108529 -0.068743102 0.0509822
-0.124408 -0.067930199 -0.0471172
-0.124407 -0.066419601 -0.045897901
-0.080657497 -0.067242503 -0.046703499
-0.0539742 -0.076594397 -0.0438869
-0.0944423 -0.075194798 -0.041833799
0.1135 -0.070751503 0.029858701
0.108433 -0.070282303 0.029860601
0.094778597 -0.068346597 0.039669499
0.097459599 -0.068769597 0.039233901
0.087512799 -0.068911299 0.0431813
0.084967501 -0.0687574 0.043933101
0.0817445 -0.069645301 0.0461451
-0.125989 -0.067853197 -0.0467849
-0.125984 -0.069512598 -0.0474816
-0.117364 -0.073185302 -0.0494092
-0.097380802 -0.072365902 -0.048910499
-0.080659702 -0.071112402 -0.048266798
-0.080626801 -0.067956097 -0.0494924
-0.075963199 -0.067974702 -0.049044501
-0.0775325 -0.0679821 -0.047465701
-0.0775325 -0.069544598 -0.047455899
-0.071277604 -0.067208402 -0.049030099
-0.071277499 -0.067208499 -0.0490302
0.0998974 -0.069508798 0.040728301
0.094627701 -0.0692636 0.0402858
0.097361699 -0.0694426 0.040102102
0.084967397 -0.069360197 0.046429001
0.078256398 -0.0692387 0.05226
-0.127499 -0.069903001 -0.0469153
-0.079095103 -0.069544502 -0.048266001
-0.076508597 -0.0683368 -0.050273702
-0.073616996 -0.069544598 -0.048266001
0.110997 -0.068305001 0.032981299
0.112083 -0.073911197 0.039809499
0.098097898 -0.074295498 0.048768301
0.085294098 -0.071601197 0.0517454
0.084072798 -0.077865399 0.058284499
-0.128134 -0.072830401 -0.0496687
-0.075973697 -0.073744401 -0.048765101
-0.074407503 -0.071107097 -0.049027901
-0.075970002 -0.0722882 -0.0498285
-0.074407503 -0.071902603 -0.0498285
-0.070480898 -0.071107097 -0.0498285
-0.071282499 -0.071915999 -0.0498285
-0.071282499 -0.071107097 -0.049024601
0.093851201 -0.076316498 0.031931501
-0.12916499 -0.074160501 -0.050657399
-0.0910955 -0.077626899 -0.051225901
-0.0759698 -0.074161902 -0.0506678
-0.129095 -0.072669603 -0.048998501
0.112492 -0.075393297 0.0477538
-0.077502802 -0.075800002 -0.051382601
-0.074408099 -0.075805299 -0.050618701
-0.072844997 -0.0757946 -0.0521322
-0.071274802 -0.0753702 -0.051757202
-0.12908 -0.075801797 -0.047440499
-0.075970002 -0.075042203 -0.051391002
-0.071294799 -0.074227899 -0.0505904
-0.070455499 -0.074232101 -0.051391002
-0.136315 -0.071865 -0.039043698
-0.072844997 -0.078919299 -0.0521309
-0.13224199 -0.075783998 -0.055274699
-0.126065 -0.081659101 -0.0523922
-0.071798198 -0.089041799 -0.0490392
0.073375702 -0.078919098 0.053755902
-0.130657 -0.078910902 -0.052173398
-0.12064 -0.081149302 -0.0527687
-0.113493 -0.080039799 -0.052101001
-0.104286 -0.082211703 -0.0533427
-0.076860301 -0.081144497 -0.053622499
-0.084932499 -0.081894599 -0.054321799
-0.072844997 -0.079740599 -0.0529535
-0.072868504 -0.080452599 -0.055370301
-0.071207397 -0.0789726 -0.052901998
-0.071258403 -0.078919597 -0.0529535
-0.130696 -0.081895798 -0.052269299
-0.0949338 -0.0846937 -0.054304201
-0.072844997 -0.082888901 -0.054515999
-0.072843499 -0.084423102 -0.056043901
-0.132227 -0.083620898 -0.0505572
-0.118037 -0.0867984 -0.056570999
-0.071282499 -0.082861997 -0.054515999
-0.070486903 -0.082044601 -0.054515999
-0.106411 -0.088699497 -0.057218101
-0.086270303 -0.0890425 -0.057448801
-0.080115497 -0.087282598 -0.056789901
-0.125964 -0.089271203 -0.054439299
-0.133775 -0.083614603 -0.052161202
-0.100868 -0.095083997 -0.050893899
-0.071282499 -0.085972898 -0.056078501
-0.071282499 -0.086732097 -0.0568377
-0.133782 -0.086732097 -0.055258501
-0.0714221 -0.083761103 -0.0567296
-0.067660801 -0.086809598 -0.054482698
-0.127932 -0.096056201 -0.050654501
-0.0712865 -0.087589599 -0.057645101
-0.126753 -0.091429397 -0.058420401
-0.122849 -0.089090496 -0.056079902
-0.096872099 -0.0918267 -0.058875501
-0.06972 -0.086732097 -0.056838699
-0.06972 -0.087538697 -0.057641
-0.13534801 -0.086726703 -0.054520398
-0.13591599 -0.087304197 -0.056267701
-0.116609 -0.094355002 -0.059560999
-0.072781503 -0.091706 -0.059443701
-0.13690799 -0.087481998 -0.056894299
-0.13690799 -0.089717701 -0.057116099
-0.12284 -0.090983599 -0.057668101
-0.128134 -0.0935909 -0.057790499
-0.11155 -0.092887603 -0.058414102
-0.082562298 -0.094926998 -0.060461201
-0.071281701 -0.093126498 -0.058922399
-0.13846999 -0.0914196 -0.057640899
-0.13846999 -0.089856997 -0.056858901
-0.128324 -0.094522998 -0.059225701
-0.12597699 -0.090569697 -0.058471099
-0.072775997 -0.092933603 -0.061348502
-0.13846999 -0.0914196 -0.057641
-0.138607 -0.092753202 -0.058364499
-0.14003199 -0.091422603 -0.058389701
-0.133781 -0.098363101 -0.0609078
-0.124395 -0.089794599 -0.061556999
-0.071193703 -0.0928929 -0.0592863
-0.125971 -0.0945035 -0.058490101
-0.0739564 -0.096033297 -0.060850602
-0.070214599 -0.0971044 -0.057895601
-0.140026 -0.094550498 -0.059332501
-0.12753201 -0.093777001 -0.059203502
-0.093415 -0.100554 -0.062505499
-0.066267803 -0.102013 -0.060993198
-0.111992 -0.102881 -0.0630676
-0.141605 -0.094564602 -0.061544899
-0.102094 -0.098938704 -0.061915699
-0.074415401 -0.097901203 -0.062483702
-0.14316 -0.0962862 -0.0596238
-0.129105 -0.099229597 -0.060017001
-0.074444003 -0.099980898 -0.0639631
-0.143153 -0.0989803 -0.060461
-0.133798 -0.100774 -0.059951499
-0.0761372 -0.100616 -0.064112097
-0.14472 -0.100795 -0.063089699
-0.135364 -0.100776 -0.063085698
-0.13608401 -0.100795 -0.062328499
-0.14472 -0.0992321 -0.061528001
-0.130657 -0.0992321 -0.061505601
-0.124407 -0.102371 -0.063062601
-0.131221 -0.114501 -0.059189901
-0.13847101 -0.104725 -0.063892499
-0.136907 -0.101606 -0.062328499
-0.136907 -0.102357 -0.063079402
-0.137889 -0.102132 -0.062548697
-0.12909301 -0.103943 -0.067957498
-0.130648 -0.103919 -0.063055597
-0.11972 -0.102348 -0.063117698
-0.084459797 -0.103277 -0.063949503
-0.075967297 -0.102357 -0.063896798
-0.14782199 -0.100816 -0.063115299
-0.072347298 -0.109851 -0.0587378
-0.124379 -0.105514 -0.063058197
-0.0896402 -0.106387 -0.066040598
-0.14782999 -0.103965 -0.066250801
-0.14161199 -0.106258 -0.064674802
-0.119722 -0.106812 -0.064881697
-0.103049 -0.107731 -0.066253699
-0.076603301 -0.105971 -0.064200498
-0.146282 -0.107606 -0.064028703
-0.147845 -0.105482 -0.063066103
-0.125452 -0.107044 -0.064146303
-0.097273797 -0.109624 -0.067227401
-0.075970002 -0.104743 -0.0654535
-0.083898798 -0.111218 -0.067914702
-0.075970002 -0.105482 -0.0661925
-0.075971603 -0.107542 -0.0670183
-0.142496 -0.10633 -0.065411203
-0.12753201 -0.107892 -0.065453298
-0.149407 -0.105482 -0.063093401
0.17648301 -0.132331 -0.081955798
-0.130657 -0.10861 -0.066167697
-0.12753201 -0.108607 -0.066169202
-0.121279 -0.108609 -0.063066803
-0.115208 -0.111527 -0.067507401
-0.077547498 -0.108711 -0.067065999
-0.14950199 -0.107204 -0.063455999
-0.151362 -0.108224 -0.064265199
-0.15097 -0.107045 -0.064665601
-0.134937 -0.108757 -0.065590099
-0.134597 -0.107062 -0.066276297
-0.135345 -0.108607 -0.064644299
-0.135345 -0.107045 -0.064661399
-0.130657 -0.107045 -0.064659201
-0.126592 -0.110067 -0.064809598
-0.096457198 -0.122921 -0.064248502
-0.132209 -0.110238 -0.064537302
-0.129077 -0.109369 -0.065428898
-0.108782 -0.114645 -0.069554798
-0.077508003 -0.110168 -0.067974202
-0.14806101 -0.112918 -0.067446202
-0.146282 -0.110169 -0.064640798
-0.136912 -0.108922 -0.0655955
-0.134794 -0.110171 -0.0672855
-0.122843 -0.108606 -0.067771003
-0.150401 -0.110362 -0.063712902
-0.133782 -0.11017 -0.067760304
-0.133765 -0.112509 -0.066261701
-0.124408 -0.111736 -0.0677457
-0.090884902 -0.114048 -0.068297699
-0.079095602 -0.112156 -0.068580501
-0.077449903 -0.112268 -0.068494201
-0.078524902 -0.110198 -0.070050597
-0.152466 -0.110284 -0.065903001
-0.152532 -0.111732 -0.065793402
-0.145658 -0.110008 -0.065616898
-0.14637899 -0.111527 -0.0669415
-0.136951 -0.111769 -0.066895001
-0.124407 -0.11017 -0.066215597
0.20059299 -0.113295 -0.086519398
0.202086 -0.114702 -0.084975198
0.20215499 -0.111732 -0.0849576
0.20059299 -0.111732 -0.084972799
-0.130657 -0.112586 -0.068578497
-0.130669 -0.113992 -0.068566598
-0.104095 -0.11641 -0.070573002
-0.147016 -0.113429 -0.069589399
-0.13846999 -0.111732 -0.0670157
-0.13846999 -0.113295 -0.068571202
-0.129113 -0.113299 -0.069010399
-0.12597001 -0.111732 -0.067782097
-0.12594099 -0.11313 -0.069130197
-0.111912 -0.117206 -0.070147902
-0.154165 -0.11478 -0.066422299
-0.15409499 -0.111732 -0.066177197
-0.14959601 -0.114721 -0.068447798
-0.143484 -0.111732 -0.067015998
-0.14315701 -0.111732 -0.066830702
-0.14315701 -0.11192 -0.067015998
0.199056 -0.113301 -0.088128403
-0.15097 -0.114091 -0.073266096
-0.15173601 -0.114857 -0.073266096
-0.15097 -0.114857 -0.071831703
-0.082208902 -0.117105 -0.072603703
-0.14906301 -0.113288 -0.070098497
-0.149407 -0.114857 -0.0687875
-0.149139 -0.114857 -0.068578497
-0.137245 -0.115291 -0.068149999
-0.131427 -0.116425 -0.067714997
-0.12728301 -0.117976 -0.067568101
-0.111908 -0.114827 -0.0693499
