# .PCD v0.7 - Point Cloud Data file format
VERSION 0.7
FIELDS x y z
SIZE 4 4 4
TYPE F F F
COUNT 1 1 1
WIDTH 231
HEIGHT 1
VIEWPOINT 0 0 0 1 0 0 0
POINTS 231
DATA ascii
0.62497717 -0.45387068 -0.24574144
0.62619841 -0.44577 -0.24525282
0.62822616 -0.43479005 -0.245334
0.63073999 -0.43204001 -0.24979
0.62835759 -0.42630994 -0.24371253
0.63116002 -0.42299333 -0.24588339
0.62968999 -0.41596997 -0.24086003
0.6316874 -0.41602251 -0.2456525
0.63420349 -0.40480292 -0.24421602
0.63589847 -0.39333856 -0.24448287
0.63664269 -0.38525876 -0.2442437
0.63779289 -0.37541005 -0.24396142
0.64146 -0.37244502 -0.24791498
0.63966995 -0.36743 -0.2457
0.64224344 -0.3643111 -0.24479887
0.64425266 -0.35403004 -0.24481542
0.6482501 -0.34784716 -0.244855
0.61991 -0.45641002 -0.23246999
0.62166667 -0.45267937 -0.2350127
0.62336576 -0.44367442 -0.23469137
0.62463391 -0.43441197 -0.23471801
0.62507218 -0.42729604 -0.23359801
0.62669748 -0.41522744 -0.23441504
0.62888992 -0.40572995 -0.23370001
0.63214713 -0.40316853 -0.23739997
0.62720996 -0.39616501 -0.23098002
0.63260502 -0.39532506 -0.23632008
0.63413537 -0.38552442 -0.23503633
0.63596112 -0.37509 -0.2351689
0.63778198 -0.36493284 -0.23526542
0.63871604 -0.35602406 -0.23353602
0.6414175 -0.352 -0.23432751
0.63831007 -0.34922501 -0.23355497
0.64488852 -0.34664279 -0.2342093
0.65370482 -0.34555998 -0.23572917
0.66918814 -0.34666455 -0.23583364
0.68501002 -0.34992999 -0.23157001
0.61816102 -0.45275402 -0.22456098
0.61812663 -0.44643334 -0.22207999
0.62106997 -0.44409502 -0.22688998
0.61961001 -0.43859002 -0.22475
0.62132001 -0.43421498 -0.22494496
0.62334335 -0.42512658 -0.22590834
0.62483299 -0.41522852 -0.22613713
0.62688506 -0.40549365 -0.22407626
0.6304 -0.40372002 -0.226605
0.62786174 -0.39467993 -0.22460338
0.63073999 -0.39579758 -0.22619003
0.6290099 -0.38543668 -0.22282669
0.63171721 -0.3844614 -0.22533569
0.62936503 -0.37328002 -0.22181499
0.63380235 -0.37529457 -0.22595336
0.63483435 -0.36599565 -0.22523572
0.63680375 -0.35704497 -0.22554
0.64000994 -0.35052001 -0.22467999
0.67646998 -0.35179001 -0.22946
0.63690007 -0.34877503 -0.22364999
0.64303714 -0.34641114 -0.22588997
0.65352237 -0.34509689 -0.22530413
0.66999 -0.34894001 -0.22172001
0.67760003 -0.34667 -0.22347
0.61723006 -0.45227227 -0.21376777
0.62217754 -0.45148003 -0.21147749
0.61768401 -0.44468993 -0.21557799
0.62286663 -0.44457993 -0.21026666
0.6182251 -0.43700504 -0.21764006
0.62304676 -0.43416491 -0.21353
0.62153274 -0.42542434 -0.21581571
0.63288665 -0.4246133 -0.2103067
0.62444872 -0.41546991 -0.21465878
0.63779998 -0.41574001 -0.21047001
0.64070994 -0.41155002 -0.21070002
0.62834936 -0.4058412 -0.21418189
0.63671333 -0.40465999 -0.21054
0.62781638 -0.39559379 -0.21612002
0.63089007 -0.3958925 -0.21163751
0.62768328 -0.38552999 -0.21549505
0.63125199 -0.38471594 -0.212892
0.62907398 -0.3758181 -0.21451002
0.63267237 -0.37379119 -0.21394336
0.62954998 -0.36480001 -0.21482001
0.63429755 -0.36600375 -0.2142462
0.63416767 -0.35651004 -0.21585917
0.68772 -0.35244 -0.2154
0.70705563 -0.35360861 -0.21141143
0.71399999 -0.35427999 -0.21284001
0.72229999 -0.35284999 -0.21461
0.63692492 -0.34799632 -0.21561252
0.64194494 -0.34613252 -0.21650748
0.65312457 -0.34584761 -0.21408385
0.6630246 -0.34586462 -0.21586847
0.67635489 -0.344708 -0.217327
0.68703002 -0.34595999 -0.21445
0.69349003 -0.34948 -0.21072
0.67986 -0.33643001 -0.21149001
0.62768 -0.45423999 -0.20743001
0.63275665 -0.45326003 -0.20731668
0.64212114 -0.45360374 -0.20413999
0.65241337 -0.45342335 -0.20141
0.63440508 -0.44481507 -0.20738499
0.64560759 -0.44337749 -0.20410246
0.65378499 -0.44244504 -0.20084
0.62509996 -0.43570504 -0.20942001
0.63702327 -0.43598333 -0.20689665
0.64564335 -0.43372998 -0.20438331
0.65308005 -0.43241671 -0.20260334
0.66114002 -0.43162003 -0.20127
0.62847006 -0.42509505 -0.20834003
0.64115006 -0.42623997 -0.20652668
0.65456569 -0.42428711 -0.20179285
0.66345 -0.42059997 -0.20051999
0.63445503 -0.41611496 -0.20809497
0.64359444 -0.41594338 -0.20568667
0.65409064 -0.41529074 -0.20230402
0.66459996 -0.41510001 -0.20015
0.6364966 -0.40408662 -0.20725664
0.64589167 -0.40548503 -0.20556334
0.65583014 -0.40535498 -0.2026383
0.66126007 -0.40735003 -0.20171
0.63524002 -0.3943975 -0.20910247
0.64484006 -0.39503151 -0.20658424
0.65469503 -0.39503667 -0.20294005
0.66078001 -0.39293504 -0.2007
0.63720244 -0.38483247 -0.20924
0.64578164 -0.38539672 -0.20695835
0.65503871 -0.38504997 -0.2031614
0.66296333 -0.38297331 -0.20099665
0.63863009 -0.373965 -0.20915501
0.64497173 -0.37593162 -0.20712836
0.65639013 -0.3748883 -0.20381165
0.6648981 -0.37386397 -0.20102201
0.63534003 -0.36158502 -0.20939499
0.64427245 -0.36511755 -0.20704627
0.65642607 -0.36485597 -0.20366797
0.66622001 -0.36328 -0.201318
0.63654673 -0.35448331 -0.20875999
0.64551777 -0.35433668 -0.20667444
0.65786999 -0.35581663 -0.20290667
0.66402632 -0.35303095 -0.20267545
0.67509001 -0.35271999 -0.20206
0.68594623 -0.35220748 -0.205625
0.69898993 -0.35295001 -0.20083
0.70491332 -0.35515574 -0.20554617
0.71496505 -0.35464334 -0.20590334
0.72326803 -0.35672197 -0.20639601
0.73227 -0.35591 -0.20022
0.64427006 -0.34786007 -0.20805
0.65377635 -0.34753752 -0.20634748
0.66626251 -0.34819371 -0.20637052
0.68067795 -0.34972197 -0.20323798
0.65714997 -0.46074 -0.19805999
0.66896337 -0.46333334 -0.19464667
0.64646 -0.45501003 -0.1998
0.65920001 -0.45581999 -0.19795001
0.66520011 -0.45363009 -0.19771728
0.67513305 -0.45494005 -0.19411077
0.68533409 -0.45717198 -0.19213203
0.69379997 -0.45175996 -0.19047999
0.65515506 -0.44407496 -0.19969499
0.66739011 -0.4444133 -0.19765331
0.67311502 -0.44314995 -0.19381499
0.68350595 -0.44632396 -0.19224399
0.69317663 -0.44378999 -0.19071332
0.65952998 -0.43687001 -0.19936
0.66751927 -0.43260533 -0.19671385
0.67485213 -0.43482551 -0.1954378
0.68437749 -0.43665752 -0.19247748
0.69288999 -0.43663001 -0.191405
0.66609579 -0.42392358 -0.19796638
0.67610592 -0.42445803 -0.19455403
0.68579996 -0.42433208 -0.191982
0.69665498 -0.42594501 -0.19099499
0.66724664 -0.41439337 -0.19795999
0.67670822 -0.41541848 -0.1959267
0.68544269 -0.41412255 -0.19289003
0.69709009 -0.41653004 -0.19004001
0.6666283 -0.40571669 -0.19867165
0.6749649 -0.40468502 -0.19637997
0.68382192 -0.40591994 -0.19395801
0.69068003 -0.40515998 -0.19263999
0.66532326 -0.39703333 -0.19927998
0.67322499 -0.39421499 -0.19685499
0.6843583 -0.39676672 -0.19388163
0.6924035 -0.39438 -0.19243336
0.66833502 -0.38577995 -0.19854997
0.67350483 -0.38409829 -0.19669165
0.68509007 -0.38498002 -0.19377667
0.69217008 -0.38313496 -0.19126253
0.67442667 -0.37437332 -0.19784167
0.68496597 -0.37511402 -0.194454
0.69589674 -0.37414002 -0.19109002
0.66287011 -0.36317003 -0.19944501
0.67707783 -0.36402601 -0.19737799
0.68752503 -0.36515841 -0.19391662
0.69834334 -0.36362335 -0.19082338
0.70127004 -0.36835 -0.19019999
0.70999998 -0.36311001 -0.19001
0.66833675 -0.35394001 -0.19939333
0.67532247 -0.35554004 -0.1965975
0.68520248 -0.35463691 -0.19663373
0.69494438 -0.35691285 -0.19285575
0.70457679 -0.35472518 -0.19508398
0.71482503 -0.35586998 -0.19376901
0.722 -0.35824999 -0.19871999
0.68361002 -0.46087 -0.18958001
0.69167501 -0.46264499 -0.18652001
0.68630999 -0.45565999 -0.18923
0.6926257 -0.45566854 -0.18717143
0.68813998 -0.44988999 -0.18864
0.69453615 -0.44552693 -0.18656924
0.70288998 -0.44625252 -0.18750499
0.6940769 -0.43551004 -0.18849078
0.7019645 -0.4363291 -0.18660454
0.6957854 -0.42634913 -0.18861999
0.70398295 -0.42420301 -0.18659201
0.68940997 -0.41589999 -0.18960001
0.69579452 -0.41380003 -0.18947078
0.7053501 -0.41367003 -0.185735
0.69800341 -0.40581781 -0.18913214
0.70661753 -0.40354878 -0.18492875
0.71164006 -0.40573001 -0.18584998
0.69818497 -0.39774501 -0.18848498
0.70334399 -0.39473364 -0.18733086
0.70408988 -0.38547665 -0.18746166
0.71101999 -0.38417998 -0.18491
0.70561242 -0.37595126 -0.18772502
0.71430498 -0.37689999 -0.18525
0.70520234 -0.36486962 -0.18782438
0.71325999 -0.36270598 -0.18513869
0.708296 -0.35886997 -0.18755201
0.71399993 -0.35841599 -0.18673201
